   0.0000000e+00   0.0000000e+00   0.0000000e+00   0.0000000e+00   0.0000000e+00   0.0000000e+00   0.0000000e+00   0.0000000e+00   0.0000000e+00   0.0000000e+00   0.0000000e+00   0.0000000e+00   0.0000000e+00   0.0000000e+00   0.0000000e+00   0.0000000e+00   0.0000000e+00   0.0000000e+00   0.0000000e+00   0.0000000e+00   0.0000000e+00   0.0000000e+00   0.0000000e+00   0.0000000e+00   0.0000000e+00   0.0000000e+00   0.0000000e+00   0.0000000e+00   0.0000000e+00   0.0000000e+00   0.0000000e+00   0.0000000e+00   0.0000000e+00   0.0000000e+00   0.0000000e+00   0.0000000e+00   0.0000000e+00   0.0000000e+00   0.0000000e+00   0.0000000e+00   0.0000000e+00   0.0000000e+00   0.0000000e+00   0.0000000e+00   0.0000000e+00   0.0000000e+00   0.0000000e+00   0.0000000e+00   0.0000000e+00   0.0000000e+00   0.0000000e+00   0.0000000e+00   0.0000000e+00   0.0000000e+00   0.0000000e+00   0.0000000e+00   0.0000000e+00   0.0000000e+00   0.0000000e+00   0.0000000e+00   0.0000000e+00
   0.0000000e+00   3.1522989e+01   4.5388478e+01   6.0371204e+01   7.5353930e+01   9.0336656e+01   1.0531938e+02   1.2070621e+02   1.3702074e+02   1.5333528e+02   1.6964982e+02   1.8596436e+02   2.0231474e+02   2.1870728e+02   2.3509982e+02   2.5142770e+02   2.6771505e+02   2.8400240e+02   3.0028974e+02   3.1624285e+02   3.3203660e+02   3.4783035e+02   3.6362410e+02   3.7915829e+02   3.9440441e+02   4.3871590e+02   5.3280102e+02   6.1989794e+02   7.5475822e+02   8.9108233e+02   1.0831114e+03   1.2218717e+03   1.3617960e+03   1.3528079e+03   1.4000000e+03   1.3356509e+03   1.3563471e+03   1.3445516e+03   1.2664051e+03   1.2076352e+03   1.1293628e+03   1.2226973e+03   1.1409122e+03   1.0964555e+03   1.1568872e+03   1.1159130e+03   1.0428887e+03   1.0289244e+03   9.5381604e+02   1.0022969e+03   9.4510083e+02   9.4790748e+02   8.5931487e+02   8.2241517e+02   7.6610815e+02   6.8044462e+02   5.9867147e+02   4.8977934e+02   4.0000000e+02   3.5482962e+02   0.0000000e+00
   0.0000000e+00   4.8101401e+01   6.3045978e+01   7.6363644e+01   9.0776956e+01   1.0575968e+02   1.2074241e+02   1.3572513e+02   1.5070786e+02   1.6569059e+02   1.8067331e+02   1.9565604e+02   2.1063876e+02   2.2562149e+02   2.4141241e+02   2.5772695e+02   2.7404149e+02   2.9035603e+02   3.0667057e+02   3.2298510e+02   3.3929964e+02   3.5561418e+02   3.7192872e+02   3.8824326e+02   4.3012696e+02   5.3041761e+02   6.4414828e+02   7.8207460e+02   9.4370273e+02   1.0990655e+03   1.2576956e+03   1.3598224e+03   1.4503483e+03   1.4909070e+03   1.4918079e+03   1.4896066e+03   1.4876359e+03   1.4745203e+03   1.4292372e+03   1.4284580e+03   1.4066324e+03   1.3577032e+03   1.3197271e+03   1.3116407e+03   1.2561158e+03   1.2228972e+03   1.2183941e+03   1.2235119e+03   1.1979740e+03   1.1850676e+03   1.1612673e+03   1.1400396e+03   1.1099526e+03   1.0557070e+03   9.7048767e+02   8.5774822e+02   7.3350364e+02   5.8820250e+02   4.7090970e+02   3.6804864e+02   0.0000000e+00
   0.0000000e+00   6.3942209e+01   7.9925571e+01   9.4568966e+01   1.0790363e+02   1.2118271e+02   1.3616543e+02   1.5114816e+02   1.6613089e+02   1.8111361e+02   1.9609634e+02   2.1107906e+02   2.2606179e+02   2.4104452e+02   2.5602724e+02   2.7100997e+02   2.8599269e+02   3.0097542e+02   3.1595815e+02   3.3094087e+02   3.4592360e+02   3.6211862e+02   3.7843316e+02   3.9474769e+02   4.6968628e+02   5.8211526e+02   7.3181312e+02   9.1688780e+02   1.0950620e+03   1.2657569e+03   1.4101829e+03   1.5024234e+03   1.5615815e+03   1.5872793e+03   1.5861025e+03   1.5849612e+03   1.5809806e+03   1.5833469e+03   1.5965456e+03   1.6234081e+03   1.6130370e+03   1.5548106e+03   1.4983831e+03   1.4445447e+03   1.4179954e+03   1.4466606e+03   1.4434691e+03   1.4310272e+03   1.4015461e+03   1.4055989e+03   1.3991697e+03   1.3742677e+03   1.3469752e+03   1.2849962e+03   1.1743678e+03   1.0354062e+03   8.6542689e+02   6.8968444e+02   5.3558192e+02   4.0606436e+02   0.0000000e+00
   0.0000000e+00   8.0354117e+01   9.6202801e+01   1.1171835e+02   1.2609196e+02   1.3926167e+02   1.5272729e+02   1.6657119e+02   1.8155391e+02   1.9653664e+02   2.1151936e+02   2.2650209e+02   2.4148482e+02   2.5646754e+02   2.7145027e+02   2.8643299e+02   3.0141572e+02   3.1639845e+02   3.3138117e+02   3.4636390e+02   3.6134662e+02   3.7632935e+02   3.9131208e+02   4.0000000e+02   5.0316586e+02   6.3711356e+02   8.4160309e+02   1.0687220e+03   1.2428966e+03   1.4134744e+03   1.5450428e+03   1.6544142e+03   1.7193416e+03   1.7403770e+03   1.7389218e+03   1.7425848e+03   1.7563414e+03   1.7847144e+03   1.8353305e+03   1.8517865e+03   1.8426101e+03   1.7942376e+03   1.7373214e+03   1.6851956e+03   1.6494977e+03   1.6688452e+03   1.6648344e+03   1.6354281e+03   1.6109242e+03   1.6120908e+03   1.6735216e+03   1.6720861e+03   1.6299082e+03   1.5255448e+03   1.4029031e+03   1.2310210e+03   1.0107759e+03   7.7441232e+02   5.7549750e+02   4.0565345e+02   0.0000000e+00
   0.0000000e+00   9.7092179e+01   1.1170075e+02   1.2826725e+02   1.4351113e+02   1.5761494e+02   1.7068521e+02   1.8442987e+02   1.9768757e+02   2.1195966e+02   2.2694239e+02   2.4192512e+02   2.5690784e+02   2.7189057e+02   2.8687329e+02   3.0185602e+02   3.1683875e+02   3.3182147e+02   3.4680420e+02   3.6178692e+02   3.7676965e+02   3.9175238e+02   4.0000000e+02   4.0408579e+02   5.2867707e+02   6.8718909e+02   9.4185532e+02   1.1789627e+03   1.3814260e+03   1.5337625e+03   1.6617234e+03   1.7753558e+03   1.8528263e+03   1.8902808e+03   1.9133707e+03   1.9395173e+03   1.9764389e+03   2.0327661e+03   2.0694968e+03   2.1072204e+03   2.0847119e+03   2.0521104e+03   1.9869395e+03   1.9246504e+03   1.8894402e+03   1.8836828e+03   1.8622248e+03   1.8444579e+03   1.8210861e+03   1.8454018e+03   1.9035211e+03   1.9333413e+03   1.8466073e+03   1.7019918e+03   1.5367529e+03   1.3659428e+03   1.1194746e+03   8.2667600e+02   5.8054808e+02   4.0132357e+02   0.0000000e+00
   0.0000000e+00   1.1359334e+02   1.2788442e+02   1.4430420e+02   1.5985114e+02   1.7524274e+02   1.8913793e+02   2.0218759e+02   2.1580725e+02   2.2909093e+02   2.4236542e+02   2.5734814e+02   2.7233087e+02   2.8731359e+02   3.0229632e+02   3.1727905e+02   3.3226177e+02   3.4724450e+02   3.6222722e+02   3.7720995e+02   3.9219268e+02   4.0000000e+02   4.0000000e+02   4.1702902e+02   5.4838147e+02   7.3442596e+02   9.7942632e+02   1.2616947e+03   1.4523729e+03   1.6045160e+03   1.7405862e+03   1.8570287e+03   1.9509698e+03   2.0221064e+03   2.0940125e+03   2.1471101e+03   2.2077058e+03   2.2882120e+03   2.3440721e+03   2.3841750e+03   2.3663872e+03   2.3156887e+03   2.2326690e+03   2.1728092e+03   2.1322113e+03   2.1055597e+03   2.0533696e+03   2.0336243e+03   2.0079509e+03   2.0000000e+03   2.0000000e+03   2.0000000e+03   1.9284560e+03   1.7243309e+03   1.5593477e+03   1.3380468e+03   1.0792335e+03   7.6175094e+02   5.3207719e+02   3.6626054e+02   0.0000000e+00
   0.0000000e+00   1.2964769e+02   1.4406809e+02   1.5995138e+02   1.7636746e+02   1.9164392e+02   2.0686806e+02   2.2066092e+02   2.3371796e+02   2.4711299e+02   2.6078238e+02   2.7410909e+02   2.8775389e+02   3.0273662e+02   3.1771935e+02   3.3270207e+02   3.4768480e+02   3.6266752e+02   3.7765025e+02   3.9263298e+02   4.0000000e+02   4.0000000e+02   4.0000000e+02   4.0082557e+02   5.7341964e+02   7.5296546e+02   1.0385842e+03   1.2708606e+03   1.4602469e+03   1.6201255e+03   1.7600330e+03   1.8896438e+03   2.0149533e+03   2.1330740e+03   2.2308897e+03   2.3415657e+03   2.4274158e+03   2.5406259e+03   2.6004497e+03   2.6419000e+03   2.6301193e+03   2.5740548e+03   2.4996950e+03   2.4319703e+03   2.3698740e+03   2.3077356e+03   2.2386984e+03   2.1745056e+03   2.1229630e+03   2.0251727e+03   2.0000000e+03   1.9825094e+03   1.8357075e+03   1.6195081e+03   1.3760964e+03   1.1254634e+03   8.6111968e+02   6.0473653e+02   4.4406417e+02   3.6626054e+02   0.0000000e+00
   0.0000000e+00   1.4535563e+02   1.6070823e+02   1.7564296e+02   1.9240560e+02   2.0820732e+02   2.2343670e+02   2.3849338e+02   2.5218391e+02   2.6524834e+02   2.7852334e+02   2.9240514e+02   3.0545458e+02   3.1881001e+02   3.3314237e+02   3.4812510e+02   3.6310782e+02   3.7809055e+02   3.9307328e+02   4.0000000e+02   4.0000000e+02   4.0000000e+02   4.0000000e+02   4.0000000e+02   5.4321004e+02   7.3255045e+02   9.7815843e+02   1.2194245e+03   1.4115431e+03   1.5590853e+03   1.7007837e+03   1.8655565e+03   2.0526994e+03   2.2092110e+03   2.3783581e+03   2.5068163e+03   2.6274183e+03   2.7103645e+03   2.8000290e+03   2.8150210e+03   2.8126050e+03   2.7546350e+03   2.7022974e+03   2.6523972e+03   2.5844724e+03   2.4770613e+03   2.3965240e+03   2.2981436e+03   2.1795145e+03   2.0621108e+03   1.9285591e+03   1.7995077e+03   1.5794011e+03   1.3209341e+03   1.0530010e+03   8.1976579e+02   6.0288782e+02   4.5172769e+02   3.9720301e+02   3.6626054e+02   0.0000000e+00
   0.0000000e+00   1.6063337e+02   1.7750640e+02   1.9182663e+02   2.0821379e+02   2.2446768e+02   2.3977671e+02   2.5522947e+02   2.7009629e+02   2.8370690e+02   2.9677872e+02   3.0994689e+02   3.2371088e+02   3.3713489e+02   3.5047273e+02   3.6354813e+02   3.7853085e+02   3.9351358e+02   4.0000000e+02   4.0000000e+02   4.0000000e+02   4.0000000e+02   4.0000000e+02   4.0000000e+02   5.1175690e+02   6.9041738e+02   9.2541660e+02   1.1434669e+03   1.3180086e+03   1.4597021e+03   1.6232705e+03   1.8266861e+03   2.0832497e+03   2.3151785e+03   2.4896977e+03   2.6436139e+03   2.7560411e+03   2.8272136e+03   2.8613792e+03   2.8867016e+03   2.8881552e+03   2.8699468e+03   2.8433941e+03   2.8118000e+03   2.7284093e+03   2.6288789e+03   2.5162683e+03   2.3833710e+03   2.2260679e+03   2.0225009e+03   1.7887211e+03   1.5223333e+03   1.2617543e+03   1.0133619e+03   7.6432720e+02   5.7130632e+02   4.3072588e+02   4.0000000e+02   3.8659051e+02   3.6122798e+02   0.0000000e+00
   0.0000000e+00   1.7591110e+02   1.9418436e+02   2.0801030e+02   2.2340149e+02   2.4050700e+02   2.5653449e+02   2.7156949e+02   2.8702225e+02   3.0161928e+02   3.1522989e+02   3.2830909e+02   3.4137043e+02   3.5501662e+02   3.6885973e+02   3.8181822e+02   3.9537514e+02   4.0664659e+02   4.0150342e+02   4.0000000e+02   4.0000000e+02   4.0000000e+02   4.0000000e+02   4.0000000e+02   5.0612919e+02   6.6119525e+02   8.7128358e+02   1.0843455e+03   1.2518372e+03   1.3805843e+03   1.5585532e+03   1.8251462e+03   2.1829156e+03   2.4369305e+03   2.6421412e+03   2.7608818e+03   2.8452257e+03   2.8917094e+03   2.9261936e+03   2.9541343e+03   2.9634071e+03   2.9659578e+03   2.9402387e+03   2.8979024e+03   2.8316682e+03   2.7249224e+03   2.5954083e+03   2.4420328e+03   2.2342091e+03   1.9694714e+03   1.6124813e+03   1.2801161e+03   9.8096029e+02   7.3191415e+02   5.4491291e+02   4.0000000e+02   4.0000000e+02   4.0000000e+02   3.7597802e+02   3.5044612e+02   0.0000000e+00
   0.0000000e+00   1.9118884e+02   2.1068551e+02   2.2426418e+02   2.3958516e+02   2.5647621e+02   2.7256790e+02   2.8810894e+02   3.0336227e+02   3.1881503e+02   3.3314227e+02   3.4675288e+02   3.5983947e+02   3.7284480e+02   3.8636147e+02   4.0164906e+02   4.5887968e+02   4.9367713e+02   4.8205883e+02   4.5281291e+02   4.0804207e+02   4.0000000e+02   4.0000000e+02   4.0000000e+02   5.1736626e+02   6.6325115e+02   8.5287806e+02   1.0652617e+03   1.2386231e+03   1.3877506e+03   1.6115650e+03   1.9307897e+03   2.3111734e+03   2.6040712e+03   2.7759765e+03   2.8660275e+03   2.9353506e+03   2.9781350e+03   3.0001215e+03   3.0228781e+03   3.0522816e+03   3.0556446e+03   3.0264411e+03   2.9650712e+03   2.8757746e+03   2.7558286e+03   2.6297015e+03   2.4650854e+03   2.2433405e+03   1.9276123e+03   1.4677138e+03   1.0720845e+03   7.7116083e+02   5.4959290e+02   4.0000000e+02   4.0000000e+02   4.0000000e+02   3.9416709e+02   3.6536552e+02   3.3966427e+02   0.0000000e+00
   0.0000000e+00   2.0646658e+02   2.2718667e+02   2.4106235e+02   2.5576884e+02   2.7164035e+02   2.8860840e+02   3.0463471e+02   3.1970228e+02   3.3515505e+02   3.5048547e+02   3.6466526e+02   3.7827587e+02   3.9136985e+02   4.2629939e+02   5.0024489e+02   5.5675428e+02   5.7882384e+02   5.7439415e+02   5.5565054e+02   5.2459324e+02   4.8409240e+02   4.7611831e+02   5.1288683e+02   5.9682989e+02   7.4936014e+02   9.2961062e+02   1.1731825e+03   1.3746599e+03   1.5578959e+03   1.7891663e+03   2.1202379e+03   2.4854974e+03   2.7290633e+03   2.8792276e+03   2.9762774e+03   3.0447048e+03   3.0915466e+03   3.1179845e+03   3.1333386e+03   3.1477883e+03   3.1401246e+03   3.0835306e+03   3.0037348e+03   2.8804972e+03   2.7556073e+03   2.6263502e+03   2.4764150e+03   2.2372796e+03   1.8691903e+03   1.4421785e+03   9.5959409e+02   6.4806522e+02   4.6966954e+02   4.0000000e+02   4.0000000e+02   4.0000000e+02   3.8355460e+02   3.5475302e+02   3.2888241e+02   0.0000000e+00
   0.0000000e+00   2.2137714e+02   2.4324523e+02   2.5786052e+02   2.7195251e+02   2.8734370e+02   3.0473862e+02   3.2066811e+02   3.3651301e+02   3.5149506e+02   3.6694782e+02   3.8211079e+02   3.9618825e+02   4.6384647e+02   5.4745052e+02   6.2370016e+02   6.9421732e+02   7.0830118e+02   7.0871813e+02   6.9123726e+02   6.7162429e+02   6.3058482e+02   6.2920767e+02   6.7440189e+02   7.7723953e+02   9.6947814e+02   1.1924901e+03   1.4464563e+03   1.6471697e+03   1.8671022e+03   2.1037425e+03   2.3998443e+03   2.6685458e+03   2.8373523e+03   2.9714254e+03   3.0679352e+03   3.1554941e+03   3.1992350e+03   3.2000000e+03   3.2000000e+03   3.2000000e+03   3.1977188e+03   3.1193485e+03   3.0146405e+03   2.8779362e+03   2.7472107e+03   2.6240963e+03   2.4854379e+03   2.3101812e+03   1.8844252e+03   1.3959122e+03   9.3263642e+02   5.9907242e+02   4.3091658e+02   4.0000000e+02   4.0000000e+02   4.0000000e+02   3.7294210e+02   3.4414053e+02   3.1810056e+02   0.0000000e+00
   0.0000000e+00   2.3604137e+02   2.5929539e+02   2.7465869e+02   2.8813618e+02   3.0352737e+02   3.1990276e+02   3.3670980e+02   3.5273493e+02   3.6801055e+02   3.8328784e+02   3.9874060e+02   4.8407338e+02   5.7912929e+02   6.8612731e+02   7.7943668e+02   8.6132366e+02   8.7814458e+02   8.8630017e+02   8.8023927e+02   8.7620030e+02   8.6547954e+02   8.8347542e+02   9.4037014e+02   1.0961284e+03   1.3300218e+03   1.5777854e+03   1.8346956e+03   2.0079110e+03   2.2081215e+03   2.4240205e+03   2.6310390e+03   2.8124646e+03   2.9318184e+03   3.0474528e+03   3.1508357e+03   3.2000000e+03   3.2000000e+03   3.2000000e+03   3.2000000e+03   3.2000000e+03   3.2000000e+03   3.1261814e+03   3.0157464e+03   2.8777262e+03   2.7484915e+03   2.6441493e+03   2.5306016e+03   2.3800157e+03   1.9226489e+03   1.3809448e+03   9.0750146e+02   5.8790483e+02   4.0000000e+02   4.0000000e+02   4.0000000e+02   3.9113118e+02   3.6232960e+02   3.3352803e+02   3.0731870e+02   0.0000000e+00
   0.0000000e+00   2.5070559e+02   2.7534555e+02   2.9127654e+02   3.0461830e+02   3.1971105e+02   3.3510224e+02   3.5295753e+02   3.6876833e+02   3.8480174e+02   3.9962785e+02   4.8882867e+02   5.8521362e+02   6.9204178e+02   8.1388376e+02   9.3705326e+02   1.0337418e+03   1.1134217e+03   1.1507171e+03   1.1870952e+03   1.2072671e+03   1.3180694e+03   1.4076408e+03   1.4700886e+03   1.6769192e+03   1.8972120e+03   2.0973695e+03   2.2781752e+03   2.3813813e+03   2.5126301e+03   2.6685472e+03   2.8038179e+03   2.9037181e+03   3.0159388e+03   3.1254957e+03   3.2000000e+03   3.2000000e+03   3.2000000e+03   3.2000000e+03   3.2000000e+03   3.2000000e+03   3.2000000e+03   3.1261519e+03   3.0168522e+03   2.8949898e+03   2.7741853e+03   2.6748083e+03   2.5645738e+03   2.4157965e+03   1.9668320e+03   1.4276837e+03   9.1331139e+02   6.2524310e+02   4.0000000e+02   4.0000000e+02   4.0000000e+02   3.8051868e+02   3.5171711e+02   3.2291554e+02   2.9640968e+02   0.0000000e+00
   0.0000000e+00   2.6540391e+02   2.9071126e+02   3.0777769e+02   3.2141647e+02   3.3589472e+02   3.5128591e+02   3.6816518e+02   3.8481121e+02   4.0000000e+02   4.9666201e+02   5.8634504e+02   6.9727394e+02   8.0861350e+02   9.4997197e+02   1.1250836e+03   1.2723790e+03   1.3924226e+03   1.5038695e+03   1.5988042e+03   1.7678491e+03   2.0010682e+03   2.1883472e+03   2.3480018e+03   2.4298469e+03   2.5288796e+03   2.6088285e+03   2.6471171e+03   2.6912063e+03   2.7452448e+03   2.8385512e+03   2.9049055e+03   3.0031750e+03   3.0874655e+03   3.1779551e+03   3.2000000e+03   3.2000000e+03   3.2000000e+03   3.2000000e+03   3.2000000e+03   3.2000000e+03   3.1918512e+03   3.0986318e+03   3.0004178e+03   2.8789564e+03   2.7536194e+03   2.6600578e+03   2.5388662e+03   2.4098449e+03   1.9941289e+03   1.4530409e+03   9.3075072e+02   5.9018116e+02   4.2251928e+02   4.0000000e+02   3.9870775e+02   3.6990618e+02   3.4110461e+02   3.1230304e+02   2.8541637e+02   0.0000000e+00
   0.0000000e+00   2.8010288e+02   3.0598900e+02   3.2427885e+02   3.3821464e+02   3.5207839e+02   3.6746958e+02   3.8332932e+02   4.0676355e+02   5.0719088e+02   6.0257860e+02   7.1920090e+02   8.4044529e+02   1.0086086e+03   1.2291506e+03   1.4462089e+03   1.6283008e+03   1.7260598e+03   1.8814909e+03   2.0707843e+03   2.3217934e+03   2.6893604e+03   3.0214009e+03   3.2391182e+03   3.2016937e+03   3.1268855e+03   3.0327250e+03   2.9621798e+03   2.9399661e+03   2.9243228e+03   2.9654488e+03   3.0109132e+03   3.0601305e+03   3.1347015e+03   3.2000000e+03   3.2000000e+03   3.2000000e+03   3.2000000e+03   3.2000000e+03   3.2000000e+03   3.1953511e+03   3.1199483e+03   3.0316830e+03   2.9284665e+03   2.8079362e+03   2.6791161e+03   2.5641686e+03   2.4426718e+03   2.2613106e+03   1.9235478e+03   1.4297658e+03   9.5033348e+02   5.9978176e+02   4.2405861e+02   4.0000000e+02   3.8809526e+02   3.5929369e+02   3.3049212e+02   3.0169055e+02   2.7442306e+02   0.0000000e+00
   0.0000000e+00   2.9416282e+02   3.2126673e+02   3.4078001e+02   3.5501280e+02   3.6826207e+02   3.8365326e+02   3.9904445e+02   5.0794310e+02   6.1763270e+02   7.4939387e+02   8.9244580e+02   1.0415280e+03   1.3235813e+03   1.6012579e+03   1.8578176e+03   2.0152231e+03   2.0831576e+03   2.2022750e+03   2.4405264e+03   2.7175975e+03   3.1587585e+03   3.4603674e+03   3.6000000e+03   3.5641956e+03   3.4080154e+03   3.2627680e+03   3.1660990e+03   3.0785671e+03   3.0510002e+03   3.0000000e+03   3.0209840e+03   3.0946284e+03   3.1572750e+03   3.2000000e+03   3.2000000e+03   3.2000000e+03   3.2000000e+03   3.2000000e+03   3.1988628e+03   3.1245666e+03   3.0399822e+03   2.9331069e+03   2.8179155e+03   2.6820187e+03   2.5513156e+03   2.4159522e+03   2.2681424e+03   2.0649841e+03   1.7655968e+03   1.3282613e+03   9.3370480e+02   6.2899794e+02   4.4271859e+02   4.0000000e+02   3.7748276e+02   3.4868119e+02   3.1987962e+02   2.9107805e+02   2.6342975e+02   0.0000000e+00
   0.0000000e+00   3.0762989e+02   3.3654447e+02   3.5684277e+02   3.7181097e+02   3.8497241e+02   3.9983693e+02   4.8870001e+02   6.0905489e+02   7.6413401e+02   9.3290517e+02   1.1261140e+03   1.3628114e+03   1.6864905e+03   2.0123646e+03   2.2249578e+03   2.2949974e+03   2.3411856e+03   2.4492973e+03   2.6652736e+03   2.9478041e+03   3.2608567e+03   3.5153586e+03   3.6000000e+03   3.5750834e+03   3.4562986e+03   3.3425553e+03   3.2406721e+03   3.1538844e+03   3.0678050e+03   3.0000000e+03   3.0000000e+03   3.0706227e+03   3.1442671e+03   3.2000000e+03   3.2000000e+03   3.2000000e+03   3.2000000e+03   3.1954392e+03   3.1369191e+03   3.0631566e+03   2.9578873e+03   2.8269889e+03   2.6761807e+03   2.5227979e+03   2.3526811e+03   2.2089320e+03   2.0346277e+03   1.8039328e+03   1.5225000e+03   1.1923465e+03   8.8483363e+02   6.2607330e+02   4.4753894e+02   3.9567184e+02   3.6687027e+02   3.3806870e+02   3.0926713e+02   2.8046555e+02   2.5243644e+02   0.0000000e+00
   0.0000000e+00   3.2056025e+02   3.5182221e+02   3.7289292e+02   3.8836871e+02   4.0805268e+02   4.9397494e+02   5.9697797e+02   7.7485221e+02   9.9236500e+02   1.2273160e+03   1.5295310e+03   1.7687686e+03   2.1096271e+03   2.3620505e+03   2.4904019e+03   2.5369904e+03   2.5514938e+03   2.6539614e+03   2.8143696e+03   3.0409881e+03   3.2571300e+03   3.4180748e+03   3.4793553e+03   3.4442412e+03   3.3725571e+03   3.2949921e+03   3.2229163e+03   3.1593032e+03   3.0846099e+03   3.0000000e+03   3.0000000e+03   3.0466169e+03   3.1173692e+03   3.1299270e+03   3.1581720e+03   3.1726715e+03   3.1707459e+03   3.1408395e+03   3.0858293e+03   3.0191673e+03   2.8793082e+03   2.7211465e+03   2.5211160e+03   2.3386458e+03   2.1431575e+03   1.9654200e+03   1.7966509e+03   1.5533903e+03   1.3020805e+03   1.0536211e+03   7.8904950e+02   5.8672784e+02   4.4769688e+02   3.8505934e+02   3.5625777e+02   3.2745620e+02   2.9865463e+02   2.6985306e+02   2.4144313e+02   0.0000000e+00
   0.0000000e+00   3.3236091e+02   3.6709994e+02   3.8894308e+02   4.2858726e+02   5.1425612e+02   6.0380848e+02   7.6496771e+02   9.8815149e+02   1.2856793e+03   1.6809522e+03   2.0992527e+03   2.4658540e+03   2.6914923e+03   2.7426086e+03   2.7305443e+03   2.7206025e+03   2.7320565e+03   2.7916816e+03   2.9311248e+03   3.0729124e+03   3.2122907e+03   3.3064847e+03   3.3173858e+03   3.2733042e+03   3.2307140e+03   3.1742320e+03   3.1285612e+03   3.1007407e+03   3.0633288e+03   3.0153354e+03   3.0000000e+03   3.0181914e+03   3.0209740e+03   3.0345143e+03   3.0503128e+03   3.0729494e+03   3.0879098e+03   3.0761344e+03   3.0379305e+03   2.9489591e+03   2.7805224e+03   2.5697314e+03   2.3656836e+03   2.1425489e+03   1.9307658e+03   1.7400963e+03   1.5611239e+03   1.3611465e+03   1.1552663e+03   9.2678202e+02   7.2740697e+02   5.6034723e+02   4.2660091e+02   3.7444685e+02   3.4564528e+02   3.1684370e+02   2.8804213e+02   2.5924056e+02   2.3044982e+02   0.0000000e+00
   0.0000000e+00   3.4004228e+02   3.8237768e+02   4.2394009e+02   5.1440483e+02   6.1739620e+02   7.5328143e+02   9.5527509e+02   1.2510239e+03   1.6724302e+03   2.2881142e+03   2.8296003e+03   3.1719715e+03   3.1759528e+03   3.0778022e+03   2.9503521e+03   2.8748889e+03   2.8789439e+03   2.9241794e+03   3.0000000e+03   3.0716349e+03   3.1501550e+03   3.1804879e+03   3.1434293e+03   3.0827623e+03   3.0243285e+03   2.9949240e+03   2.9954835e+03   3.0090107e+03   2.9794237e+03   2.9090214e+03   2.8775356e+03   2.8577825e+03   2.8547665e+03   2.8588931e+03   2.8863170e+03   2.9304639e+03   2.9874925e+03   2.9878248e+03   2.9247959e+03   2.7759326e+03   2.5957219e+03   2.3904053e+03   2.1854972e+03   1.9651345e+03   1.7533442e+03   1.5510811e+03   1.3744289e+03   1.2004306e+03   1.0280058e+03   8.4021880e+02   6.7154934e+02   5.2258211e+02   3.9767360e+02   3.6383435e+02   3.3503278e+02   3.0623121e+02   2.7742964e+02   2.4862807e+02   2.1982650e+02   0.0000000e+00
   0.0000000e+00   3.4004228e+02   3.9765542e+02   4.9317934e+02   5.9508164e+02   7.3793118e+02   9.1818430e+02   1.1867003e+03   1.5347874e+03   2.0518767e+03   2.7115024e+03   3.2569142e+03   3.4000000e+03   3.3979796e+03   3.1999630e+03   3.0623912e+03   3.0000000e+03   2.9939613e+03   3.0000000e+03   3.0000000e+03   3.0000000e+03   3.0561324e+03   3.0126499e+03   2.9145828e+03   2.8053543e+03   2.7301931e+03   2.7130964e+03   2.7797265e+03   2.8184639e+03   2.7842821e+03   2.6944672e+03   2.6532190e+03   2.6223866e+03   2.5924274e+03   2.5795270e+03   2.5674163e+03   2.5943213e+03   2.6797964e+03   2.6776947e+03   2.6584004e+03   2.5112012e+03   2.3216317e+03   2.1649700e+03   1.9794976e+03   1.7724611e+03   1.5583368e+03   1.3760536e+03   1.2175101e+03   1.0775047e+03   9.2988800e+02   7.6657977e+02   6.1131331e+02   4.8863678e+02   3.8873094e+02   3.5443474e+02   3.2442028e+02   2.9561871e+02   2.6681714e+02   2.3801557e+02   2.0921400e+02   0.0000000e+00
   0.0000000e+00   3.4004228e+02   4.4676401e+02   5.5413959e+02   6.9103459e+02   8.5615824e+02   1.0744834e+03   1.3746754e+03   1.8108744e+03   2.3110290e+03   2.8571850e+03   3.2557002e+03   3.3754269e+03   3.2690032e+03   3.0966765e+03   3.0423112e+03   3.0000000e+03   3.0000000e+03   3.0000000e+03   3.0000000e+03   3.0000000e+03   2.8823607e+03   2.7597035e+03   2.5866566e+03   2.4689345e+03   2.3703635e+03   2.3736020e+03   2.4511571e+03   2.4749189e+03   2.4530639e+03   2.3932234e+03   2.3232156e+03   2.2705345e+03   2.2229375e+03   2.1798422e+03   2.1500399e+03   2.1625055e+03   2.2406615e+03   2.3049409e+03   2.2640968e+03   2.1644441e+03   2.0514648e+03   1.9138688e+03   1.7560527e+03   1.5636547e+03   1.3732043e+03   1.2262952e+03   1.0815752e+03   9.5643986e+02   8.4345124e+02   7.0801404e+02   5.6795835e+02   4.5338234e+02   3.8078148e+02   3.4600234e+02   3.1380779e+02   2.8500622e+02   2.5620465e+02   2.2740307e+02   1.9860150e+02   0.0000000e+00
   0.0000000e+00   3.4004228e+02   4.8386532e+02   5.9340285e+02   7.5932292e+02   9.6008532e+02   1.1944209e+03   1.5511398e+03   1.9534204e+03   2.3726581e+03   2.7364670e+03   2.9954437e+03   3.0600096e+03   2.9813365e+03   2.9085946e+03   2.8963369e+03   2.8867209e+03   2.8852672e+03   2.8845557e+03   2.8337391e+03   2.7271196e+03   2.5190336e+03   2.3489159e+03   2.1842864e+03   2.0808952e+03   2.0169204e+03   2.0052190e+03   2.0263726e+03   2.0807666e+03   2.0646988e+03   2.0427756e+03   1.9583442e+03   1.9204043e+03   1.8822035e+03   1.8472785e+03   1.7903196e+03   1.7716509e+03   1.7994209e+03   1.8556186e+03   1.8655240e+03   1.8111952e+03   1.7526881e+03   1.6280855e+03   1.5147545e+03   1.3614865e+03   1.2106932e+03   1.0880612e+03   9.6473724e+02   8.6788523e+02   7.6723749e+02   6.4432693e+02   5.3536126e+02   4.2291036e+02   3.7275248e+02   3.3700864e+02   3.0319529e+02   2.7439372e+02   2.4559215e+02   2.1679058e+02   1.8798901e+02   0.0000000e+00
   0.0000000e+00   3.4004228e+02   5.0087784e+02   6.3089125e+02   8.1994428e+02   1.0486959e+03   1.3286353e+03   1.6609305e+03   2.0228611e+03   2.3663540e+03   2.6281168e+03   2.7756244e+03   2.8229751e+03   2.7828920e+03   2.7396103e+03   2.7279920e+03   2.7262311e+03   2.7094455e+03   2.6553843e+03   2.5220630e+03   2.3297087e+03   2.0979340e+03   1.9161168e+03   1.7781087e+03   1.7309469e+03   1.6794244e+03   1.6560243e+03   1.6974935e+03   1.7284019e+03   1.7273049e+03   1.6993974e+03   1.6370275e+03   1.6045176e+03   1.5933987e+03   1.5636058e+03   1.5201144e+03   1.4893357e+03   1.5152189e+03   1.5594692e+03   1.5602117e+03   1.5353845e+03   1.4794518e+03   1.3943834e+03   1.2918314e+03   1.1655022e+03   1.0515715e+03   9.6041145e+02   8.6768814e+02   7.7025055e+02   6.7372447e+02   5.8041230e+02   4.8701020e+02   3.9537618e+02   3.6428176e+02   3.2865540e+02   2.9422333e+02   2.6378123e+02   2.3497965e+02   2.0617808e+02   1.7737651e+02   0.0000000e+00
   0.0000000e+00   3.4004228e+02   5.0343991e+02   6.4319709e+02   8.5484911e+02   1.1024093e+03   1.3870633e+03   1.7130495e+03   2.0331842e+03   2.2972372e+03   2.4872041e+03   2.6184516e+03   2.6563066e+03   2.6283054e+03   2.5957628e+03   2.5561333e+03   2.5071268e+03   2.4507936e+03   2.3492120e+03   2.1898945e+03   1.9684775e+03   1.7231537e+03   1.5601596e+03   1.4974385e+03   1.4513506e+03   1.4185080e+03   1.4140159e+03   1.4367946e+03   1.4771698e+03   1.4600388e+03   1.4429255e+03   1.3954482e+03   1.3655435e+03   1.3636392e+03   1.3615309e+03   1.3385461e+03   1.3218568e+03   1.3220344e+03   1.3428926e+03   1.3596435e+03   1.3261677e+03   1.2661695e+03   1.1833894e+03   1.0981228e+03   1.0050956e+03   9.1846208e+02   8.3760615e+02   7.6472625e+02   6.8803083e+02   5.9996752e+02   5.2157877e+02   4.4251466e+02   3.8426417e+02   3.5431331e+02   3.2065211e+02   2.8533738e+02   2.5316873e+02   2.2436716e+02   1.9556559e+02   1.6676402e+02   0.0000000e+00
   0.0000000e+00   3.4355356e+02   4.8649064e+02   6.1725598e+02   8.5062709e+02   1.0966970e+03   1.3769791e+03   1.6751411e+03   1.9649152e+03   2.1986279e+03   2.3868766e+03   2.4888424e+03   2.5086959e+03   2.4815761e+03   2.4282059e+03   2.3714716e+03   2.2980783e+03   2.2133263e+03   2.0928408e+03   1.8983612e+03   1.6855207e+03   1.4619561e+03   1.3463384e+03   1.3028675e+03   1.2743065e+03   1.2607921e+03   1.2547354e+03   1.2678810e+03   1.2858118e+03   1.2682766e+03   1.2309006e+03   1.1956094e+03   1.1901387e+03   1.1891303e+03   1.1885416e+03   1.1880052e+03   1.1836036e+03   1.1644118e+03   1.1769573e+03   1.1876533e+03   1.1627350e+03   1.1005729e+03   1.0104062e+03   9.3996388e+02   8.7895371e+02   7.9474657e+02   7.2903974e+02   6.6934596e+02   5.9270423e+02   5.3889340e+02   4.7134389e+02   3.9820018e+02   3.7221485e+02   3.4316577e+02   3.1224151e+02   2.7652932e+02   2.4255623e+02   2.1375466e+02   1.8495309e+02   1.5615152e+02   0.0000000e+00
   0.0000000e+00   3.3655964e+02   4.4879887e+02   5.6783521e+02   7.5748115e+02   1.0114434e+03   1.2785947e+03   1.5475200e+03   1.8175747e+03   2.0555161e+03   2.2400320e+03   2.3338302e+03   2.3576039e+03   2.3218368e+03   2.2531285e+03   2.1693514e+03   2.0824968e+03   1.9948864e+03   1.8667940e+03   1.6749243e+03   1.4803074e+03   1.3228794e+03   1.2188751e+03   1.1644458e+03   1.1389488e+03   1.1292284e+03   1.1204730e+03   1.1285016e+03   1.1286231e+03   1.1224118e+03   1.0865146e+03   1.0618926e+03   1.0452397e+03   1.0421009e+03   1.0347807e+03   1.0234213e+03   1.0128616e+03   1.0007684e+03   9.9508828e+02   1.0012856e+03   9.7907818e+02   9.3102372e+02   8.7126773e+02   8.1067383e+02   7.4966086e+02   6.8223913e+02   6.2622893e+02   5.7469153e+02   5.2844618e+02   4.6977011e+02   4.0689616e+02   3.8301344e+02   3.5897163e+02   3.3177285e+02   3.0212194e+02   2.6855173e+02   2.3366613e+02   2.0314217e+02   1.7434060e+02   1.4553902e+02   0.0000000e+00
   0.0000000e+00   3.2358185e+02   3.9027335e+02   5.0230793e+02   6.4625662e+02   8.5646671e+02   1.0878923e+03   1.3278388e+03   1.5924599e+03   1.8434374e+03   2.0356547e+03   2.1245472e+03   2.1526751e+03   2.1236610e+03   2.0487868e+03   1.9505700e+03   1.8583176e+03   1.7492911e+03   1.6140815e+03   1.4526355e+03   1.2900093e+03   1.1711976e+03   1.1068976e+03   1.0620320e+03   1.0252998e+03   1.0088083e+03   9.9757663e+02   9.9537575e+02   9.9510525e+02   9.8769376e+02   9.6111310e+02   9.3747726e+02   9.2114562e+02   9.1090648e+02   8.8945388e+02   8.7059776e+02   8.4511940e+02   8.1321613e+02   7.9372709e+02   7.8928909e+02   7.7719363e+02   7.6236226e+02   7.0843079e+02   6.7027203e+02   6.2101341e+02   5.6980526e+02   5.3606064e+02   4.9814805e+02   4.5784300e+02   4.0706493e+02   3.8334735e+02   3.6365156e+02   3.4384577e+02   3.1962364e+02   2.9097197e+02   2.6020125e+02   2.2467242e+02   1.9252967e+02   1.6372810e+02   1.3492653e+02   0.0000000e+00
   0.0000000e+00   3.0232693e+02   3.6046761e+02   4.1805839e+02   5.3838226e+02   6.7982033e+02   8.5369153e+02   1.0815018e+03   1.3319401e+03   1.5653812e+03   1.7217959e+03   1.8513777e+03   1.8629239e+03   1.8580180e+03   1.7809687e+03   1.6862441e+03   1.5949039e+03   1.4929050e+03   1.3896346e+03   1.2418836e+03   1.1235701e+03   1.0521401e+03   9.9271611e+02   9.6151703e+02   9.3209085e+02   9.1610543e+02   9.0598017e+02   8.9329020e+02   8.9160991e+02   8.7587087e+02   8.5121154e+02   8.2505023e+02   8.1026406e+02   7.8907298e+02   7.5857536e+02   7.1883002e+02   6.7618818e+02   6.4054794e+02   6.3249890e+02   6.1480471e+02   6.0514583e+02   5.8084368e+02   5.6342916e+02   5.4333146e+02   5.1626125e+02   4.7515473e+02   4.5044038e+02   4.2052336e+02   3.9356830e+02   3.8002902e+02   3.6384148e+02   3.4501262e+02   3.2531181e+02   3.0467235e+02   2.7916114e+02   2.4990501e+02   2.1645135e+02   1.8191718e+02   1.5311560e+02   1.2431403e+02   0.0000000e+00
   0.0000000e+00   2.7891982e+02   3.3066186e+02   3.7784440e+02   4.5972753e+02   5.6029235e+02   6.8681172e+02   8.4318539e+02   1.0451063e+03   1.2266242e+03   1.3683489e+03   1.4766678e+03   1.5094037e+03   1.5167841e+03   1.4992020e+03   1.4291549e+03   1.3474317e+03   1.2727147e+03   1.1898351e+03   1.0963947e+03   9.9946293e+02   9.4663362e+02   9.1169334e+02   8.7827627e+02   8.4789208e+02   8.2643664e+02   8.1485519e+02   8.0220119e+02   7.8456966e+02   7.6840111e+02   7.5095260e+02   7.2925832e+02   7.0185253e+02   6.7287527e+02   6.3680660e+02   5.8949249e+02   5.4471222e+02   5.1545202e+02   5.0950988e+02   4.9057926e+02   4.7577732e+02   4.5669265e+02   4.4727831e+02   4.3140450e+02   4.1353513e+02   3.9520280e+02   3.8597059e+02   3.7673838e+02   3.6707227e+02   3.5421030e+02   3.4104459e+02   3.2544831e+02   3.0667788e+02   2.8708179e+02   2.6546679e+02   2.3872192e+02   2.0816100e+02   1.7300117e+02   1.4250311e+02   1.1370154e+02   0.0000000e+00
   0.0000000e+00   2.5468862e+02   3.0084721e+02   3.4943499e+02   3.9871672e+02   4.8984399e+02   5.7242020e+02   6.9207541e+02   8.1039658e+02   9.4515695e+02   1.0747842e+03   1.1419294e+03   1.1972018e+03   1.2331332e+03   1.2348479e+03   1.1927178e+03   1.1560976e+03   1.1167026e+03   1.0561152e+03   9.8373478e+02   9.2369462e+02   8.7107551e+02   8.3097852e+02   7.9562666e+02   7.6091471e+02   7.3998874e+02   7.2595830e+02   7.1061560e+02   6.9031550e+02   6.7200448e+02   6.5999296e+02   6.3893226e+02   6.0872676e+02   5.7157481e+02   5.3600531e+02   4.8595414e+02   4.4139347e+02   4.0588569e+02   4.0000000e+02   4.0000000e+02   4.0000000e+02   3.9074562e+02   3.8064293e+02   3.7122787e+02   3.6592302e+02   3.6082648e+02   3.5377492e+02   3.4464843e+02   3.3541622e+02   3.2602172e+02   3.1487903e+02   3.0173686e+02   2.8705513e+02   2.6834315e+02   2.4885176e+02   2.2623824e+02   1.9768809e+02   1.6432770e+02   1.3189061e+02   1.0308904e+02   0.0000000e+00
   0.0000000e+00   2.2545379e+02   2.7097870e+02   3.2119127e+02   3.6733998e+02   4.2462373e+02   5.1174179e+02   5.6898015e+02   6.5075160e+02   7.4432803e+02   8.5155912e+02   9.2997145e+02   9.8431130e+02   1.0350406e+03   1.0621317e+03   1.0517533e+03   1.0269346e+03   9.8856134e+02   9.4953653e+02   9.0333756e+02   8.4499282e+02   7.9234595e+02   7.5227187e+02   7.1833405e+02   6.8402946e+02   6.5587260e+02   6.3678813e+02   6.1972256e+02   5.9844864e+02   5.8309930e+02   5.7611694e+02   5.6025615e+02   5.3176537e+02   4.9416078e+02   4.4362393e+02   4.0000000e+02   4.0000000e+02   4.0000000e+02   3.9265449e+02   3.8255179e+02   3.7244910e+02   3.6234641e+02   3.5224372e+02   3.4214102e+02   3.3203833e+02   3.2193564e+02   3.1516398e+02   3.0998453e+02   3.0323565e+02   2.9409405e+02   2.8486184e+02   2.7530420e+02   2.6237886e+02   2.4849116e+02   2.3000841e+02   2.1062174e+02   1.8610743e+02   1.5612075e+02   1.2127812e+02   9.2476546e+01   0.0000000e+00
   0.0000000e+00   1.9513668e+02   2.4238154e+02   2.9160847e+02   3.3623021e+02   3.8144637e+02   4.3986447e+02   4.9921713e+02   5.5948424e+02   6.3142050e+02   7.1788357e+02   7.9774461e+02   8.6846559e+02   9.0845345e+02   9.2959206e+02   9.2862838e+02   9.2430626e+02   8.9734253e+02   8.6661758e+02   8.1573321e+02   7.6873952e+02   7.2145493e+02   6.7805280e+02   6.4206947e+02   6.0734381e+02   5.7865248e+02   5.5952489e+02   5.4633354e+02   5.3016820e+02   5.1501049e+02   5.0623976e+02   4.9250104e+02   4.6577369e+02   4.2604292e+02   4.0000000e+02   3.9456335e+02   3.8446066e+02   3.7435797e+02   3.6425528e+02   3.5415258e+02   3.4404989e+02   3.3394720e+02   3.2384451e+02   3.1374182e+02   3.0363912e+02   2.9353643e+02   2.8343374e+02   2.7333105e+02   2.6440493e+02   2.5914259e+02   2.5269637e+02   2.4353967e+02   2.3425365e+02   2.2302964e+02   2.0950672e+02   1.9167368e+02   1.7192289e+02   1.4548599e+02   1.1233621e+02   8.1864050e+01   0.0000000e+00
   0.0000000e+00   1.6533093e+02   2.1412752e+02   2.5973412e+02   3.0515710e+02   3.4654385e+02   3.8595205e+02   4.4253120e+02   5.0339895e+02   5.6001258e+02   6.3059230e+02   7.0191039e+02   7.5586545e+02   7.9689598e+02   8.1409518e+02   8.1980088e+02   8.1991327e+02   8.0900198e+02   7.7903300e+02   7.3683960e+02   6.9263862e+02   6.4513834e+02   6.0708029e+02   5.7483700e+02   5.4982726e+02   5.1696742e+02   4.9572532e+02   4.7752896e+02   4.6168338e+02   4.4692167e+02   4.3721828e+02   4.2474594e+02   3.9999322e+02   3.8845575e+02   3.7691828e+02   3.6616415e+02   3.5606145e+02   3.4595876e+02   3.3585607e+02   3.2575338e+02   3.1565068e+02   3.0554799e+02   2.9544530e+02   2.8534261e+02   2.7523991e+02   2.6513722e+02   2.5503453e+02   2.4493184e+02   2.3482914e+02   2.2472645e+02   2.1462376e+02   2.0834103e+02   2.0215710e+02   1.9298530e+02   1.8353613e+02   1.7052229e+02   1.5333894e+02   1.3273339e+02   1.0408050e+02   7.1251554e+01   0.0000000e+00
   0.0000000e+00   1.3548935e+02   1.8366999e+02   2.2886782e+02   2.6962933e+02   3.1025248e+02   3.5182938e+02   3.9323979e+02   4.4591506e+02   5.1014818e+02   5.5971757e+02   6.0303903e+02   6.5527538e+02   6.9386648e+02   7.0813815e+02   7.1669008e+02   7.1668739e+02   7.1294335e+02   6.8883082e+02   6.5657685e+02   6.1319716e+02   5.7528247e+02   5.5227713e+02   5.1842111e+02   4.9665654e+02   4.6432461e+02   4.2952071e+02   4.0982606e+02   4.0000000e+02   4.0000000e+02   3.9400935e+02   3.8394814e+02   3.7388694e+02   3.6382573e+02   3.5376452e+02   3.4370331e+02   3.3364211e+02   3.2306985e+02   3.1153238e+02   2.9999491e+02   2.8845744e+02   2.7714878e+02   2.6704609e+02   2.5694340e+02   2.4684071e+02   2.3673801e+02   2.2663532e+02   2.1653263e+02   2.0642994e+02   1.9632724e+02   1.8622455e+02   1.7612186e+02   1.6601917e+02   1.5758199e+02   1.5161782e+02   1.4243092e+02   1.3118943e+02   1.1500421e+02   9.3053713e+01   6.0639059e+01   0.0000000e+00
   0.0000000e+00   1.0706376e+02   1.5257855e+02   1.9297602e+02   2.3455292e+02   2.7583842e+02   3.1687409e+02   3.5790977e+02   3.9928610e+02   4.5622525e+02   4.8196415e+02   5.0758202e+02   5.4183880e+02   5.8848358e+02   6.0331352e+02   6.1437549e+02   6.1389101e+02   6.1340653e+02   5.9422885e+02   5.6726259e+02   5.2469756e+02   4.9448716e+02   4.7902713e+02   4.6396726e+02   4.4205865e+02   4.1332872e+02   4.0000000e+02   3.9346860e+02   3.8340739e+02   3.7334618e+02   3.6328498e+02   3.5322377e+02   3.4316256e+02   3.3310135e+02   3.2304015e+02   3.1297894e+02   3.0291773e+02   2.9285652e+02   2.8279532e+02   2.7273411e+02   2.6267290e+02   2.5261169e+02   2.4255049e+02   2.3248928e+02   2.2242807e+02   2.1153408e+02   1.9999661e+02   1.8845914e+02   1.7803073e+02   1.6792803e+02   1.5782534e+02   1.4772265e+02   1.3761996e+02   1.2751726e+02   1.1741457e+02   1.0731188e+02   1.0107855e+02   9.1768067e+01   7.6669471e+01   5.2040251e+01   0.0000000e+00
   0.0000000e+00   7.6289274e+01   1.1727646e+02   1.5843705e+02   1.9964305e+02   2.4172562e+02   2.8021793e+02   3.1442936e+02   3.4650291e+02   3.7322438e+02   3.9903666e+02   4.0833889e+02   4.2173891e+02   4.3656672e+02   4.3582066e+02   4.3507580e+02   4.3433094e+02   4.3358608e+02   4.3284123e+02   4.3209637e+02   4.2982641e+02   4.1026377e+02   4.0482335e+02   3.9856198e+02   3.8973016e+02   3.8034663e+02   3.7096310e+02   3.6154944e+02   3.5175111e+02   3.4195279e+02   3.3215446e+02   3.2235614e+02   3.1243818e+02   3.0237698e+02   2.9231577e+02   2.8225456e+02   2.7219335e+02   2.6213215e+02   2.5207094e+02   2.4200973e+02   2.3194852e+02   2.2188732e+02   2.1182611e+02   2.0176490e+02   1.9170370e+02   1.8164249e+02   1.7158128e+02   1.6152007e+02   1.5145887e+02   1.4139766e+02   1.3133645e+02   1.2127524e+02   1.1121404e+02   9.9998304e+01   8.9015363e+01   7.8912671e+01   6.8809979e+01   5.8707286e+01   5.0539274e+01   3.8334735e+01   0.0000000e+00
   0.0000000e+00   0.0000000e+00   0.0000000e+00   0.0000000e+00   0.0000000e+00   0.0000000e+00   0.0000000e+00   0.0000000e+00   0.0000000e+00   0.0000000e+00   0.0000000e+00   0.0000000e+00   0.0000000e+00   0.0000000e+00   0.0000000e+00   0.0000000e+00   0.0000000e+00   0.0000000e+00   0.0000000e+00   0.0000000e+00   0.0000000e+00   0.0000000e+00   0.0000000e+00   0.0000000e+00   0.0000000e+00   0.0000000e+00   0.0000000e+00   0.0000000e+00   0.0000000e+00   0.0000000e+00   0.0000000e+00   0.0000000e+00   0.0000000e+00   0.0000000e+00   0.0000000e+00   0.0000000e+00   0.0000000e+00   0.0000000e+00   0.0000000e+00   0.0000000e+00   0.0000000e+00   0.0000000e+00   0.0000000e+00   0.0000000e+00   0.0000000e+00   0.0000000e+00   0.0000000e+00   0.0000000e+00   0.0000000e+00   0.0000000e+00   0.0000000e+00   0.0000000e+00   0.0000000e+00   0.0000000e+00   0.0000000e+00   0.0000000e+00   0.0000000e+00   0.0000000e+00   0.0000000e+00   0.0000000e+00   0.0000000e+00
