9.8398705e+03   9.8181861e+03   9.7948080e+03   9.7698169e+03   9.7433340e+03   9.7155223e+03   9.6865872e+03   9.6567755e+03   9.6263729e+03   9.5957005e+03   9.5651089e+03   9.5349721e+03   9.5056786e+03   9.4776230e+03   9.4511956e+03   9.4267722e+03   9.4047039e+03   9.3853065e+03   9.3688515e+03   9.3555575e+03   9.3455836e+03   9.3390242e+03   9.3359057e+03   9.3361861e+03   9.3397558e+03   9.3464410e+03   9.3560093e+03   9.3681767e+03   9.3826164e+03   9.3989685e+03   9.4168506e+03   9.4358683e+03   9.4556261e+03   9.4757373e+03   9.4958331e+03   9.5155708e+03   9.5346398e+03   9.5527668e+03   9.5697187e+03   9.5853041e+03   9.5993731e+03   9.6118156e+03   9.6225583e+03   9.6315609e+03   9.6388113e+03   9.6443206e+03   9.6481174e+03   9.6502430e+03   9.6507457e+03   9.6496771e+03   9.6470874e+03   9.6430229e+03   9.6375233e+03   9.6306197e+03   9.6223347e+03   9.6126813e+03   9.6016643e+03   9.5892805e+03   9.5755208e+03   9.5603720e+03   9.5438184e+03   9.5258444e+03   9.5064363e+03   9.4855850e+03   9.4632877e+03   9.4395497e+03   9.4143869e+03   9.3878264e+03   9.3599086e+03   9.3306879e+03   9.3002336e+03   9.2686308e+03   9.2359801e+03   9.2023978e+03   9.1680157e+03   9.1329803e+03   9.0974515e+03   9.0616015e+03   9.0256130e+03   8.9896772e+03   8.9539914e+03   8.9187565e+03   8.8841742e+03   8.8504443e+03   8.8177615e+03   8.7863131e+03   8.7562757e+03   8.7278131e+03   8.7010742e+03   8.6761906e+03   8.6532759e+03   8.6324245e+03   8.6137109e+03   8.5971901e+03   8.5828982e+03   8.5708528e+03   8.5610550e+03   8.5534907e+03   8.5481324e+03   8.5449417e+03   8.5438708e+03   8.5448652e+03   8.5478652e+03   8.5528081e+03   8.5596294e+03   8.5682647e+03   8.5786502e+03   8.5907236e+03   8.6044248e+03   8.6196957e+03   8.6364802e+03   8.6547241e+03   8.6743742e+03   8.6953777e+03   8.7176820e+03   8.7412331e+03   8.7659758e+03   8.7918521e+03   8.8188011e+03   8.8467585e+03   8.8756560e+03   8.9054213e+03   8.9359778e+03   8.9672449e+03   8.9991381e+03   9.0315691e+03   9.0644467e+03   9.0976773e+03   9.1311650e+03
9.8333248e+03   9.8107629e+03   9.7864380e+03   9.7604334e+03   9.7328742e+03   9.7039288e+03   9.6738095e+03   9.6427711e+03   9.6111089e+03   9.5791543e+03   9.5472695e+03   9.5158399e+03   9.4852664e+03   9.4559553e+03   9.4283083e+03   9.4027119e+03   9.3795263e+03   9.3590749e+03   9.3416351e+03   9.3274291e+03   9.3166175e+03   9.3092938e+03   9.3054814e+03   9.3051329e+03   9.3081317e+03   9.3142952e+03   9.3233812e+03   9.3350950e+03   9.3490990e+03   9.3650226e+03   9.3824736e+03   9.4010490e+03   9.4203464e+03   9.4399742e+03   9.4595610e+03   9.4787638e+03   9.4972743e+03   9.5148240e+03   9.5311864e+03   9.5461789e+03   9.5596619e+03   9.5715365e+03   9.5817414e+03   9.5902482e+03   9.5970564e+03   9.6021872e+03   9.6056784e+03   9.6075781e+03   9.6079399e+03   9.6068173e+03   9.6042608e+03   9.6003135e+03   9.5950095e+03   9.5883724e+03   9.5804141e+03   9.5711356e+03   9.5605274e+03   9.5485711e+03   9.5352412e+03   9.5205075e+03   9.5043372e+03   9.4866976e+03   9.4675587e+03   9.4468958e+03   9.4246917e+03   9.4009392e+03   9.3756430e+03   9.3488214e+03   9.3205082e+03   9.2907537e+03   9.2596259e+03   9.2272111e+03   9.1936139e+03   9.1589581e+03   9.1233853e+03   9.0870547e+03   9.0501418e+03   9.0128366e+03   8.9753419e+03   8.9378708e+03   8.9006438e+03   8.8638860e+03   8.8278235e+03   8.7926807e+03   8.7586760e+03   8.7260189e+03   8.6949068e+03   8.6655217e+03   8.6380279e+03   8.6125695e+03   8.5892692e+03   8.5682266e+03   8.5495182e+03   8.5331975e+03   8.5192952e+03   8.5078208e+03   8.4987645e+03   8.4920985e+03   8.4877803e+03   8.4857544e+03   8.4859554e+03   8.4883108e+03   8.4927427e+03   8.4991708e+03   8.5075142e+03   8.5176930e+03   8.5296294e+03   8.5432492e+03   8.5584817e+03   8.5752603e+03   8.5935223e+03   8.6132083e+03   8.6342620e+03   8.6566287e+03   8.6802551e+03   8.7050880e+03   8.7310732e+03   8.7581549e+03   8.7862748e+03   8.8153713e+03   8.8453789e+03   8.8762282e+03   8.9078454e+03   8.9401522e+03   8.9730661e+03   9.0065010e+03   9.0403668e+03   9.0745709e+03   9.1090182e+03
9.8268291e+03   9.8033994e+03   9.7781381e+03   9.7511310e+03   9.7225069e+03   9.6924392e+03   9.6611467e+03   9.6288919e+03   9.5959791e+03   9.5627494e+03   9.5295756e+03   9.4968541e+03   9.4649969e+03   9.4344213e+03   9.4055393e+03   9.3787468e+03   9.3544121e+03   9.3328651e+03   9.3143878e+03   9.2992050e+03   9.2874775e+03   9.2792971e+03   9.2746833e+03   9.2735826e+03   9.2758708e+03   9.2813562e+03   9.2897866e+03   9.3008570e+03   9.3142193e+03   9.3294931e+03   9.3462774e+03   9.3641622e+03   9.3827398e+03   9.4016157e+03   9.4204182e+03   9.4388068e+03   9.4564781e+03   9.4731709e+03   9.4886689e+03   9.5028010e+03   9.5154410e+03   9.5265041e+03   9.5359436e+03   9.5437457e+03   9.5499234e+03   9.5545103e+03   9.5575548e+03   9.5591132e+03   9.5592445e+03   9.5580053e+03   9.5554454e+03   9.5516050e+03   9.5465116e+03   9.5401796e+03   9.5326092e+03   9.5237871e+03   9.5136879e+03   9.5022756e+03   9.4895059e+03   9.4753290e+03   9.4596925e+03   9.4425441e+03   9.4238348e+03   9.4035219e+03   9.3815715e+03   9.3579613e+03   9.3326829e+03   9.3057439e+03   9.2771697e+03   9.2470054e+03   9.2153161e+03   9.1821888e+03   9.1477322e+03   9.1120769e+03   9.0753750e+03   9.0377992e+03   8.9995417e+03   8.9608119e+03   8.9218348e+03   8.8828473e+03   8.8440957e+03   8.8058319e+03   8.7683097e+03   8.7317803e+03   8.6964887e+03   8.6626696e+03   8.6305432e+03   8.6003120e+03   8.5721576e+03   8.5462379e+03   8.5226853e+03   8.5016055e+03   8.4830766e+03   8.4671497e+03   8.4538494e+03   8.4431754e+03   8.4351047e+03   8.4295940e+03   8.4265826e+03   8.4259955e+03   8.4277467e+03   8.4317423e+03   8.4378838e+03   8.4460703e+03   8.4562017e+03   8.4681801e+03   8.4819118e+03   8.4973082e+03   8.5142869e+03   8.5327714e+03   8.5526913e+03   8.5739817e+03   8.5965824e+03   8.6204370e+03   8.6454918e+03   8.6716943e+03   8.6989924e+03   8.7273331e+03   8.7566614e+03   8.7869192e+03   8.8180452e+03   8.8499738e+03   8.8826347e+03   8.9159534e+03   8.9498505e+03   8.9842426e+03   9.0190421e+03   9.0541583e+03   9.0894977e+03
9.8203993e+03   9.7961144e+03   9.7699304e+03   9.7419354e+03   9.7122615e+03   9.6810870e+03   9.6486367e+03   9.6151804e+03   9.5810304e+03   9.5465373e+03   9.5120833e+03   9.4780752e+03   9.4449350e+03   9.4130898e+03   9.3829610e+03   9.3549525e+03   9.3294394e+03   9.3067571e+03   9.2871906e+03   9.2709663e+03   9.2582443e+03   9.2491132e+03   9.2435878e+03   9.2416078e+03   9.2430408e+03   9.2476857e+03   9.2552803e+03   9.2655093e+03   9.2780147e+03   9.2924071e+03   9.3082780e+03   9.3252116e+03   9.3427968e+03   9.3606384e+03   9.3783667e+03   9.3956461e+03   9.4121810e+03   9.4277208e+03   9.4420618e+03   9.4550481e+03   9.4665694e+03   9.4765583e+03   9.4849856e+03   9.4918542e+03   9.4971933e+03   9.5010509e+03   9.5034874e+03   9.5045687e+03   9.5043602e+03   9.5029219e+03   9.5003032e+03   9.4965407e+03   9.4916549e+03   9.4856500e+03   9.4785129e+03   9.4702148e+03   9.4607122e+03   9.4499495e+03   9.4378613e+03   9.4243761e+03   9.4094193e+03   9.3929167e+03   9.3747977e+03   9.3549991e+03   9.3334679e+03   9.3101643e+03   9.2850649e+03   9.2581643e+03   9.2294780e+03   9.1990437e+03   9.1669231e+03   9.1332026e+03   9.0979940e+03   9.0614348e+03   9.0236877e+03   8.9849395e+03   8.9453999e+03   8.9052993e+03   8.8648860e+03   8.8244234e+03   8.7841858e+03   8.7444544e+03   8.7055129e+03   8.6676426e+03   8.6311179e+03   8.5962009e+03   8.5631374e+03   8.5321524e+03   8.5034465e+03   8.4771929e+03   8.4535348e+03   8.4325840e+03   8.4144205e+03   8.3990924e+03   8.3866169e+03   8.3769824e+03   8.3701510e+03   8.3660612e+03   8.3646318e+03   8.3657653e+03   8.3693523e+03   8.3752747e+03   8.3834099e+03   8.3936341e+03   8.4058249e+03   8.4198642e+03   8.4356400e+03   8.4530478e+03   8.4719913e+03   8.4923831e+03   8.5141441e+03   8.5372033e+03   8.5614963e+03   8.5869648e+03   8.6135549e+03   8.6412153e+03   8.6698967e+03   8.6995493e+03   8.7301223e+03   8.7615626e+03   8.7938135e+03   8.8268144e+03   8.8604999e+03   8.8948000e+03   8.9296397e+03   8.9649392e+03   9.0006145e+03   9.0365777e+03   9.0727377e+03
9.8140490e+03   9.7889244e+03   9.7618346e+03   9.7328695e+03   9.7021648e+03   9.6699031e+03   9.6363147e+03   9.6016761e+03   9.5663073e+03   9.5305672e+03   9.4948469e+03   9.4595625e+03   9.4251448e+03   9.3920299e+03   9.3606470e+03   9.3314069e+03   9.3046904e+03   9.2808366e+03   9.2601327e+03   9.2428050e+03   9.2290117e+03   9.2188376e+03   9.2122913e+03   9.2093053e+03   9.2097381e+03   9.2133792e+03   9.2199561e+03   9.2291434e+03   9.2405737e+03   9.2538496e+03   9.2685560e+03   9.2842729e+03   9.3005875e+03   9.3171060e+03   9.3334631e+03   9.3493305e+03   9.3644233e+03   9.3785042e+03   9.3913854e+03   9.4029288e+03   9.4130434e+03   9.4216818e+03   9.4288350e+03   9.4345257e+03   9.4388010e+03   9.4417256e+03   9.4433736e+03   9.4438218e+03   9.4431432e+03   9.4414014e+03   9.4386462e+03   9.4349102e+03   9.4302066e+03   9.4245284e+03   9.4178487e+03   9.4101214e+03   9.4012836e+03   9.3912581e+03   9.3799571e+03   9.3672849e+03   9.3531427e+03   9.3374320e+03   9.3200585e+03   9.3009361e+03   9.2799903e+03   9.2571620e+03   9.2324099e+03   9.2057140e+03   9.1770777e+03   9.1465300e+03   9.1141270e+03   9.0799537e+03   9.0441240e+03   9.0067818e+03   8.9681000e+03   8.9282799e+03   8.8875491e+03   8.8461600e+03   8.8043860e+03   8.7625180e+03   8.7208607e+03   8.6797268e+03   8.6394325e+03   8.6002918e+03   8.5626106e+03   8.5266812e+03   8.4927773e+03   8.4611486e+03   8.4320164e+03   8.4055703e+03   8.3819655e+03   8.3613206e+03   8.3437170e+03   8.3291995e+03   8.3177771e+03   8.3094254e+03   8.3040895e+03   8.3016879e+03   8.3021161e+03   8.3052517e+03   8.3109588e+03   8.3190925e+03   8.3295034e+03   8.3420415e+03   8.3565600e+03   8.3729181e+03   8.3909832e+03   8.4106331e+03   8.4317563e+03   8.4542530e+03   8.4780346e+03   8.5030231e+03   8.5291500e+03   8.5563549e+03   8.5845838e+03   8.6137871e+03   8.6439186e+03   8.6749328e+03   8.7067841e+03   8.7394247e+03   8.7728040e+03   8.8068673e+03   8.8415552e+03   8.8768033e+03   8.9125418e+03   8.9486960e+03   8.9851861e+03   9.0219280e+03   9.0588342e+03
9.8077894e+03   9.7818430e+03   9.7538671e+03   9.7239534e+03   9.6922404e+03   9.6589149e+03   9.6242123e+03   9.5884154e+03   9.5518510e+03   9.5148856e+03   9.4779183e+03   9.4413733e+03   9.4056895e+03   9.3713105e+03   9.3386720e+03   9.3081907e+03   9.2802513e+03   9.2551956e+03   9.2333116e+03   9.2148243e+03   9.1998885e+03   9.1885842e+03   9.1809131e+03   9.1767994e+03   9.1760922e+03   9.1785710e+03   9.1839529e+03   9.1919028e+03   9.2020445e+03   9.2139729e+03   9.2272678e+03   9.2415062e+03   9.2562755e+03   9.2711851e+03   9.2858761e+03   9.3000302e+03   9.3133757e+03   9.3256914e+03   9.3368081e+03   9.3466082e+03   9.3550230e+03   9.3620280e+03   9.3676367e+03   9.3718939e+03   9.3748674e+03   9.3766400e+03   9.3773017e+03   9.3769414e+03   9.3756409e+03   9.3734683e+03   9.3704740e+03   9.3666871e+03   9.3621133e+03   9.3567343e+03   9.3505083e+03   9.3433715e+03   9.3352404e+03   9.3260153e+03   9.3155838e+03   9.3038251e+03   9.2906142e+03   9.2758264e+03   9.2593419e+03   9.2410496e+03   9.2208516e+03   9.1986668e+03   9.1744346e+03   9.1481178e+03   9.1197058e+03   9.0892168e+03   9.0567001e+03   9.0222373e+03   8.9859434e+03   8.9479676e+03   8.9084925e+03   8.8677332e+03   8.8259360e+03   8.7833753e+03   8.7403505e+03   8.6971817e+03   8.6542051e+03   8.6117669e+03   8.5702179e+03   8.5299067e+03   8.4911732e+03   8.4543422e+03   8.4197172e+03   8.3875744e+03   8.3581576e+03   8.3316744e+03   8.3082925e+03   8.2881378e+03   8.2712937e+03   8.2578009e+03   8.2476593e+03   8.2408307e+03   8.2372416e+03   8.2367882e+03   8.2393409e+03   8.2447499e+03   8.2528503e+03   8.2634675e+03   8.2764229e+03   8.2915380e+03   8.3086390e+03   8.3275602e+03   8.3481466e+03   8.3702563e+03   8.3937614e+03   8.4185486e+03   8.4445188e+03   8.4715867e+03   8.4996792e+03   8.5287337e+03   8.5586962e+03   8.5895197e+03   8.6211611e+03   8.6535803e+03   8.6867372e+03   8.7205908e+03   8.7550972e+03   8.7902088e+03   8.8258730e+03   8.8620321e+03   8.8986226e+03   8.9355757e+03   8.9728168e+03   9.0102669e+03   9.0478424e+03
9.8016281e+03   9.7748804e+03   9.7460408e+03   9.7152028e+03   9.6825075e+03   9.6481457e+03   9.6123573e+03   9.5754306e+03   9.5376988e+03   9.4995351e+03   9.4613458e+03   9.4235622e+03   9.3866301e+03   9.3509992e+03   9.3171110e+03   9.2853861e+03   9.2562123e+03   9.2299325e+03   9.2068339e+03   9.1871393e+03   9.1709992e+03   9.1584870e+03   9.1495970e+03   9.1442443e+03   9.1422681e+03   9.1434374e+03   9.1474591e+03   9.1539884e+03   9.1626404e+03   9.1730038e+03   9.1846536e+03   9.1971654e+03   9.2101281e+03   9.2231561e+03   9.2358991e+03   9.2480509e+03   9.2593552e+03   9.2696091e+03   9.2786647e+03   9.2864276e+03   9.2928536e+03   9.2979434e+03   9.3017358e+03   9.3042998e+03   9.3057258e+03   9.3061169e+03   9.3055801e+03   9.3042185e+03   9.3021234e+03   9.2993689e+03   9.2960066e+03   9.2920627e+03   9.2875357e+03   9.2823962e+03   9.2765876e+03   9.2700278e+03   9.2626125e+03   9.2542187e+03   9.2447090e+03   9.2339361e+03   9.2217479e+03   9.2079923e+03   9.1925220e+03   9.1751998e+03   9.1559023e+03   9.1345248e+03   9.1109850e+03   9.0852269e+03   9.0572236e+03   9.0269808e+03   8.9945384e+03   8.9599733e+03   8.9234000e+03   8.8849712e+03   8.8448782e+03   8.8033495e+03   8.7606491e+03   8.7170737e+03   8.6729487e+03   8.6286241e+03   8.5844684e+03   8.5408628e+03   8.4981940e+03   8.4568469e+03   8.4171972e+03   8.3796040e+03   8.3444021e+03   8.3118961e+03   8.2823537e+03   8.2560016e+03   8.2330209e+03   8.2135456e+03   8.1976607e+03   8.1854031e+03   8.1767629e+03   8.1716869e+03   8.1700819e+03   8.1718204e+03   8.1767456e+03   8.1846783e+03   8.1954224e+03   8.2087718e+03   8.2245161e+03   8.2424464e+03   8.2623597e+03   8.2840636e+03   8.3073792e+03   8.3321433e+03   8.3582103e+03   8.3854524e+03   8.4137596e+03   8.4430385e+03   8.4732111e+03   8.5042128e+03   8.5359900e+03   8.5684980e+03   8.6016980e+03   8.6355554e+03   8.6700367e+03   8.7051082e+03   8.7407338e+03   8.7768737e+03   8.8134832e+03   8.8505122e+03   8.8879044e+03   8.9255977e+03   8.9635239e+03   9.0016093e+03   9.0397757e+03
9.7955689e+03   9.7680424e+03   9.7383641e+03   9.7066290e+03   9.6729809e+03   9.6376137e+03   9.6007719e+03   9.5627487e+03   9.5238828e+03   9.4845536e+03   9.4451735e+03   9.4061799e+03   9.3680245e+03   9.3311620e+03   9.2960381e+03   9.2630764e+03   9.2326663e+03   9.2051504e+03   9.1808144e+03   9.1598770e+03   9.1424832e+03   9.1286996e+03   9.1185116e+03   9.1118247e+03   9.1084676e+03   9.1081986e+03   9.1107142e+03   9.1156601e+03   9.1226434e+03   9.1312465e+03   9.1410411e+03   9.1516021e+03   9.1625216e+03   9.1734200e+03   9.1839574e+03   9.1938414e+03   9.2028330e+03   9.2107498e+03   9.2174671e+03   9.2229156e+03   9.2270778e+03   9.2299818e+03   9.2316932e+03   9.2323074e+03   9.2319392e+03   9.2307136e+03   9.2287565e+03   9.2261862e+03   9.2231054e+03   9.2195949e+03   9.2157089e+03   9.2114716e+03   9.2068752e+03   9.2018800e+03   9.1964149e+03   9.1903804e+03   9.1836515e+03   9.1760821e+03   9.1675096e+03   9.1577601e+03   9.1466540e+03   9.1340110e+03   9.1196560e+03   9.1034238e+03   9.0851647e+03   9.0647485e+03   9.0420700e+03   9.0170518e+03   8.9896493e+03   8.9598531e+03   8.9276920e+03   8.8932359e+03   8.8565963e+03   8.8179283e+03   8.7774300e+03   8.7353416e+03   8.6919438e+03   8.6475546e+03   8.6025252e+03   8.5572351e+03   8.5120856e+03   8.4674930e+03   8.4238807e+03   8.3816711e+03   8.3412766e+03   8.3030917e+03   8.2674842e+03   8.2347880e+03   8.2052960e+03   8.1792548e+03   8.1568600e+03   8.1382538e+03   8.1235234e+03   8.1127017e+03   8.1057689e+03   8.1026560e+03   8.1032493e+03   8.1073964e+03   8.1149122e+03   8.1255865e+03   8.1391905e+03   8.1554849e+03   8.1742260e+03   8.1951726e+03   8.2180913e+03   8.2427613e+03   8.2689785e+03   8.2965576e+03   8.3253340e+03   8.3551650e+03   8.3859287e+03   8.4175237e+03   8.4498667e+03   8.4828912e+03   8.5165440e+03   8.5507832e+03   8.5855746e+03   8.6208896e+03   8.6567021e+03   8.6929862e+03   8.7297143e+03   8.7668554e+03   8.8043732e+03   8.8422261e+03   8.8803659e+03   8.9187378e+03   8.9572807e+03   8.9959274e+03   9.0346051e+03
9.7896116e+03   9.7613305e+03   9.7308405e+03   9.6982381e+03   9.6636695e+03   9.6273316e+03   9.5894728e+03   9.5503908e+03   9.5104294e+03   9.4699732e+03   9.4294399e+03   9.3892721e+03   9.3499263e+03   9.3118612e+03   9.2755253e+03   9.2413443e+03   9.2097076e+03   9.1809567e+03   9.1553740e+03   9.1331736e+03   9.1144940e+03   9.0993936e+03   9.0878484e+03   9.0797537e+03   9.0749272e+03   9.0731163e+03   9.0740070e+03   9.0772356e+03   9.0824014e+03   9.0890813e+03   9.0968439e+03   9.1052648e+03   9.1139395e+03   9.1224963e+03   9.1306064e+03   9.1379926e+03   9.1444346e+03   9.1497718e+03   9.1539042e+03   9.1567892e+03   9.1584374e+03   9.1589055e+03   9.1582879e+03   9.1567075e+03   9.1543049e+03   9.1512287e+03   9.1476251e+03   9.1436289e+03   9.1393555e+03   9.1348942e+03   9.1303031e+03   9.1256058e+03   9.1207897e+03   9.1158059e+03   9.1105705e+03   9.1049677e+03   9.0988530e+03   9.0920581e+03   9.0843962e+03   9.0756677e+03   9.0656654e+03   9.0541814e+03   9.0410121e+03   9.0259646e+03   9.0088614e+03   8.9895464e+03   8.9678894e+03   8.9437906e+03   8.9171852e+03   8.8880468e+03   8.8563909e+03   8.8222777e+03   8.7858139e+03   8.7471540e+03   8.7065008e+03   8.6641041e+03   8.6202595e+03   8.5753045e+03   8.5296149e+03   8.4835985e+03   8.4376886e+03   8.3923364e+03   8.3480018e+03   8.3051444e+03   8.2642142e+03   8.2256414e+03   8.1898274e+03   8.1571362e+03   8.1278866e+03   8.1023457e+03   8.0807243e+03   8.0631734e+03   8.0497828e+03   8.0405815e+03   8.0355397e+03   8.0345727e+03   8.0375459e+03   8.0442814e+03   8.0545652e+03   8.0681551e+03   8.0847892e+03   8.1041935e+03   8.1260905e+03   8.1502055e+03   8.1762738e+03   8.2040456e+03   8.2332904e+03   8.2638002e+03   8.2953913e+03   8.3279050e+03   8.3612075e+03   8.3951890e+03   8.4297612e+03   8.4648553e+03   8.5004189e+03   8.5364129e+03   8.5728084e+03   8.6095829e+03   8.6467181e+03   8.6841967e+03   8.7220001e+03   8.7601062e+03   8.7984884e+03   8.8371137e+03   8.8759426e+03   8.9149286e+03   8.9540181e+03   8.9931507e+03   9.0322602e+03
9.7837509e+03   9.7547409e+03   9.7234680e+03   9.6900302e+03   9.6545760e+03   9.6173051e+03   9.5784696e+03   9.5383710e+03   9.4973577e+03   9.4558188e+03   9.4141767e+03   9.3728781e+03   9.3323833e+03   9.2931541e+03   9.2556409e+03   9.2202699e+03   9.1874298e+03   9.1574597e+03   9.1306379e+03   9.1071726e+03   9.0871951e+03   9.0707547e+03   9.0578178e+03   9.0482684e+03   9.0419133e+03   9.0384886e+03   9.0376697e+03   9.0390836e+03   9.0423221e+03   9.0469568e+03   9.0525539e+03   9.0586897e+03   9.0649642e+03   9.0710138e+03   9.0765219e+03   9.0812270e+03   9.0849282e+03   9.0874877e+03   9.0888306e+03   9.0889419e+03   9.0878612e+03   9.0856745e+03   9.0825061e+03   9.0785070e+03   9.0738449e+03   9.0686929e+03   9.0632187e+03   9.0575751e+03   9.0518919e+03   9.0462681e+03   9.0407676e+03   9.0354154e+03   9.0301959e+03   9.0250533e+03   9.0198931e+03   9.0145850e+03   9.0089673e+03   9.0028516e+03   8.9960286e+03   8.9882742e+03   8.9793557e+03   8.9690382e+03   8.9570906e+03   8.9432920e+03   8.9274377e+03   8.9093446e+03   8.8888568e+03   8.8658506e+03   8.8402392e+03   8.8119773e+03   8.7810645e+03   8.7475489e+03   8.7115293e+03   8.6731571e+03   8.6326366e+03   8.5902247e+03   8.5462288e+03   8.5010039e+03   8.4549476e+03   8.4084941e+03   8.3621071e+03   8.3162709e+03   8.2714810e+03   8.2282335e+03   8.1870151e+03   8.1482915e+03   8.1124976e+03   8.0800275e+03   8.0512263e+03   8.0263820e+03   8.0057210e+03   7.9894035e+03   7.9775223e+03   7.9701031e+03   7.9671064e+03   7.9684321e+03   7.9739249e+03   7.9833818e+03   7.9965597e+03   8.0131849e+03   8.0329618e+03   8.0555821e+03   8.0807338e+03   8.1081091e+03   8.1374115e+03   8.1683619e+03   8.2007036e+03   8.2342055e+03   8.2686643e+03   8.3039057e+03   8.3397839e+03   8.3761804e+03   8.4130020e+03   8.4501779e+03   8.4876563e+03   8.5254014e+03   8.5633891e+03   8.6016040e+03   8.6400356e+03   8.6786754e+03   8.7175140e+03   8.7565390e+03   8.7957333e+03   8.8350733e+03   8.8745286e+03   8.9140611e+03   8.9536252e+03   8.9931681e+03   9.0326301e+03
9.7779765e+03   9.7482639e+03   9.7162381e+03   9.6819987e+03   9.6456960e+03   9.6075328e+03   9.5677641e+03   9.5266953e+03   9.4846786e+03   9.4421071e+03   9.3994071e+03   9.3570289e+03   9.3154355e+03   9.2750909e+03   9.2364464e+03   9.1999279e+03   9.1659224e+03   9.1347656e+03   9.1067308e+03   9.0820197e+03   9.0607554e+03   9.0429779e+03   9.0286430e+03   9.0176235e+03   9.0097147e+03   9.0046413e+03   9.0020684e+03   9.0016134e+03   9.0028608e+03   9.0053769e+03   9.0087259e+03   9.0124850e+03   9.0162588e+03   9.0196919e+03   9.0224800e+03   9.0243775e+03   9.0252028e+03   9.0248408e+03   9.0232420e+03   9.0204188e+03   9.0164396e+03   9.0114203e+03   9.0055147e+03   8.9989027e+03   8.9917795e+03   8.9843432e+03   8.9767842e+03   8.9692747e+03   8.9619597e+03   8.9549503e+03   8.9483182e+03   8.9420919e+03   8.9362557e+03   8.9307495e+03   8.9254709e+03   8.9202785e+03   8.9149961e+03   8.9094182e+03   8.9033161e+03   8.8964438e+03   8.8885453e+03   8.8793604e+03   8.8686325e+03   8.8561138e+03   8.8415727e+03   8.8247993e+03   8.8056115e+03   8.7838607e+03   8.7594368e+03   8.7322733e+03   8.7023516e+03   8.6697048e+03   8.6344210e+03   8.5966449e+03   8.5565792e+03   8.5144840e+03   8.4706754e+03   8.4255221e+03   8.3794403e+03   8.3328877e+03   8.2863553e+03   8.2403582e+03   8.1954249e+03   8.1520865e+03   8.1108644e+03   8.0722589e+03   8.0367372e+03   8.0047234e+03   7.9765878e+03   7.9526398e+03   7.9331213e+03   7.9182022e+03   7.9079789e+03   7.9024743e+03   7.9016402e+03   7.9053619e+03   7.9134643e+03   7.9257201e+03   7.9418583e+03   7.9615744e+03   7.9845400e+03   8.0104135e+03   8.0388492e+03   8.0695066e+03   8.1020583e+03   8.1361964e+03   8.1716384e+03   8.2081306e+03   8.2454505e+03   8.2834085e+03   8.3218467e+03   8.3606386e+03   8.3996857e+03   8.4389155e+03   8.4782770e+03   8.5177376e+03   8.5572783e+03   8.5968905e+03   8.6365717e+03   8.6763221e+03   8.7161419e+03   8.7560282e+03   8.7959736e+03   8.8359640e+03   8.8759782e+03   8.9159867e+03   8.9559522e+03   8.9958295e+03   9.0355658e+03
9.7722724e+03   9.7418840e+03   9.7091361e+03   9.6741298e+03   9.6370176e+03   9.5980048e+03   9.5573494e+03   9.5153604e+03   9.4723934e+03   9.4288449e+03   9.3851446e+03   9.3417456e+03   9.2991130e+03   9.2577121e+03   9.2179945e+03   9.1803848e+03   9.1452675e+03   9.1129743e+03   9.0837728e+03   9.0578575e+03   9.0353430e+03   9.0162593e+03   9.0005514e+03   8.9880809e+03   8.9786311e+03   8.9719157e+03   8.9675888e+03   8.9652589e+03   8.9645028e+03   8.9648817e+03   8.9659575e+03   8.9673082e+03   8.9685426e+03   8.9693136e+03   8.9693281e+03   8.9683560e+03   8.9662345e+03   8.9628703e+03   8.9582383e+03   8.9523776e+03   8.9453847e+03   8.9374045e+03   8.9286198e+03   8.9192392e+03   8.9094852e+03   8.8995815e+03   8.8897415e+03   8.8801577e+03   8.8709923e+03   8.8623701e+03   8.8543728e+03   8.8470355e+03   8.8403451e+03   8.8342408e+03   8.8286162e+03   8.8233222e+03   8.8181725e+03   8.8129482e+03   8.8074048e+03   8.8012783e+03   8.7942924e+03   8.7861651e+03   8.7766160e+03   8.7653729e+03   8.7521784e+03   8.7367966e+03   8.7190193e+03   8.6986723e+03   8.6756211e+03   8.6497761e+03   8.6210983e+03   8.5896031e+03   8.5553642e+03   8.5185162e+03   8.4792562e+03   8.4378435e+03   8.3945984e+03   8.3498990e+03   8.3041762e+03   8.2579068e+03   8.2116052e+03   8.1658136e+03   8.1210903e+03   8.0779980e+03   8.0370905e+03   7.9989002e+03   7.9639251e+03   7.9326172e+03   7.9053720e+03   7.8825192e+03   7.8643161e+03   7.8509427e+03   7.8424995e+03   7.8390076e+03   7.8404111e+03   7.8465822e+03   7.8573278e+03   7.8723978e+03   7.8914953e+03   7.9142867e+03   7.9404130e+03   7.9695006e+03   8.0011723e+03   8.0350565e+03   8.0707963e+03   8.1080565e+03   8.1465300e+03   8.1859413e+03   8.2260500e+03   8.2666514e+03   8.3075767e+03   8.3486911e+03   8.3898916e+03   8.4311038e+03   8.4722778e+03   8.5133837e+03   8.5544080e+03   8.5953484e+03   8.6362103e+03   8.6770024e+03   8.7177342e+03   8.7584122e+03   8.7990383e+03   8.8396081e+03   8.8801090e+03   8.9205205e+03   8.9608132e+03   9.0009494e+03   9.0408837e+03
9.7666165e+03   9.7355789e+03   9.7021398e+03   9.6664020e+03   9.6285202e+03   9.5887022e+03   9.5472092e+03   9.5043531e+03   9.4604928e+03   9.4160280e+03   9.3713911e+03   9.3270374e+03   9.2834338e+03   9.2410461e+03   9.2003254e+03   9.1616947e+03   9.1255354e+03   9.0921743e+03   9.0618732e+03   9.0348190e+03   9.0111171e+03   8.9907877e+03   8.9737648e+03   8.9598985e+03   8.9489605e+03   8.9406530e+03   8.9346198e+03   8.9304597e+03   8.9277422e+03   8.9260231e+03   8.9248617e+03   8.9238361e+03   8.9225589e+03   8.9206899e+03   8.9179467e+03   8.9141131e+03   8.9090436e+03   8.9026650e+03   8.8949752e+03   8.8860383e+03   8.8759773e+03   8.8649645e+03   8.8532106e+03   8.8409518e+03   8.8284373e+03   8.8159160e+03   8.8036249e+03   8.7917775e+03   8.7805547e+03   8.7700969e+03   8.7604982e+03   8.7518034e+03   8.7440057e+03   8.7370476e+03   8.7308226e+03   8.7251791e+03   8.7199248e+03   8.7148327e+03   8.7096469e+03   8.7040899e+03   8.6978695e+03   8.6906855e+03   8.6822372e+03   8.6722304e+03   8.6603842e+03   8.6464381e+03   8.6301585e+03   8.6113455e+03   8.5898392e+03   8.5655259e+03   8.5383435e+03   8.5082870e+03   8.4754125e+03   8.4398405e+03   8.4017581e+03   8.3614193e+03   8.3191437e+03   8.2753138e+03   8.2303698e+03   8.1848026e+03   8.1391453e+03   8.0939621e+03   8.0498368e+03   8.0073594e+03   7.9671126e+03   7.9296574e+03   7.8955198e+03   7.8651779e+03   7.8390502e+03   7.8174860e+03   7.8007575e+03   7.7890548e+03   7.7824831e+03   7.7810629e+03   7.7847323e+03   7.7933522e+03   7.8067137e+03   7.8245467e+03   7.8465308e+03   7.8723065e+03   7.9014866e+03   7.9336691e+03   7.9684474e+03   8.0054216e+03   8.0442079e+03   8.0844460e+03   8.1258059e+03   8.1679926e+03   8.2107486e+03   8.2538557e+03   8.2971346e+03   8.3404433e+03   8.3836745e+03   8.4267521e+03   8.4696269e+03   8.5122723e+03   8.5546792e+03   8.5968518e+03   8.6388025e+03   8.6805485e+03   8.7221075e+03   8.7634953e+03   8.8047227e+03   8.8457939e+03   8.8867053e+03   8.9274444e+03   8.9679897e+03   9.0083108e+03   9.0483691e+03
9.7609808e+03   9.7293195e+03   9.6952195e+03   9.6587855e+03   9.6201744e+03   9.5795968e+03   9.5373167e+03   9.4936491e+03   9.4489559e+03   9.4036397e+03   9.3581353e+03   9.3128999e+03   9.2684016e+03   9.2251063e+03   9.1834642e+03   9.1438962e+03   9.1067801e+03   9.0724378e+03   9.0411246e+03   9.0130197e+03   8.9882196e+03   8.9667345e+03   8.9484872e+03   8.9333166e+03   8.9209830e+03   8.9111772e+03   8.9035325e+03   8.8976384e+03   8.8930565e+03   8.8893371e+03   8.8860360e+03   8.8827310e+03   8.8790371e+03   8.8746196e+03   8.8692052e+03   8.8625897e+03   8.8546426e+03   8.8453088e+03   8.8346066e+03   8.8226226e+03   8.8095039e+03   8.7954481e+03   8.7806918e+03   8.7654971e+03   8.7501388e+03   8.7348904e+03   8.7200123e+03   8.7057397e+03   8.6922732e+03   8.6797708e+03   8.6683420e+03   8.6580443e+03   8.6488810e+03   8.6408022e+03   8.6337066e+03   8.6274447e+03   8.6218241e+03   8.6166145e+03   8.6115546e+03   8.6063584e+03   8.6007227e+03   8.5943336e+03   8.5868744e+03   8.5780322e+03   8.5675054e+03   8.5550109e+03   8.5402910e+03   8.5231206e+03   8.5033141e+03   8.4807323e+03   8.4552885e+03   8.4269544e+03   8.3957652e+03   8.3618235e+03   8.3253016e+03   8.2864432e+03   8.2455620e+03   8.2030392e+03   8.1593186e+03   8.1148991e+03   8.0703265e+03   8.0261814e+03   7.9830675e+03   7.9415969e+03   7.9023763e+03   7.8659912e+03   7.8329920e+03   7.8038798e+03   7.7790938e+03   7.7590012e+03   7.7438883e+03   7.7339553e+03   7.7293127e+03   7.7299815e+03   7.7358957e+03   7.7469076e+03   7.7627952e+03   7.7832718e+03   7.8079970e+03   7.8365891e+03   7.8686371e+03   7.9037136e+03   7.9413870e+03   7.9812327e+03   8.0228430e+03   8.0658358e+03   8.1098610e+03   8.1546061e+03   8.1997988e+03   8.2452089e+03   8.2906478e+03   8.3359670e+03   8.3810555e+03   8.4258357e+03   8.4702594e+03   8.5143023e+03   8.5579600e+03   8.6012419e+03   8.6441672e+03   8.6867604e+03   8.7290471e+03   8.7710510e+03   8.8127913e+03   8.8542803e+03   8.8955220e+03   8.9365118e+03   8.9772354e+03   9.0176692e+03   9.0577809e+03
9.7553306e+03   9.7230697e+03   9.6883379e+03   9.6512421e+03   9.6119416e+03   9.5706500e+03   9.5276342e+03   9.4832122e+03   9.4377491e+03   9.3916498e+03   9.3453515e+03   9.2993132e+03   9.2540037e+03   9.2098887e+03   9.1674174e+03   9.1270081e+03   9.0890348e+03   9.0538145e+03   9.0215960e+03   8.9925507e+03   8.9667663e+03   8.9442429e+03   8.9248930e+03   8.9085441e+03   8.8949452e+03   8.8837763e+03   8.8746601e+03   8.8671767e+03   8.8608797e+03   8.8553133e+03   8.8500291e+03   8.8446033e+03   8.8386520e+03   8.8318443e+03   8.8239135e+03   8.8146651e+03   8.8039811e+03   8.7918213e+03   8.7782213e+03   8.7632871e+03   8.7471869e+03   8.7301408e+03   8.7124085e+03   8.6942761e+03   8.6760419e+03   8.6580033e+03   8.6404434e+03   8.6236196e+03   8.6077532e+03   8.5930217e+03   8.5795524e+03   8.5674188e+03   8.5566387e+03   8.5471744e+03   8.5389345e+03   8.5317775e+03   8.5255163e+03   8.5199237e+03   8.5147384e+03   8.5096720e+03   8.5044156e+03   8.4986470e+03   8.4920378e+03   8.4842606e+03   8.4749965e+03   8.4639424e+03   8.4508183e+03   8.4353749e+03   8.4174013e+03   8.3967320e+03   8.3732540e+03   8.3469136e+03   8.3177219e+03   8.2857595e+03   8.2511799e+03   8.2142110e+03   8.1751550e+03   8.1343858e+03   8.0923441e+03   8.0495308e+03   8.0064974e+03   7.9638344e+03   7.9221588e+03   7.8820990e+03   7.8442797e+03   7.8093060e+03   7.7777479e+03   7.7501256e+03   7.7268965e+03   7.7084432e+03   7.6950651e+03   7.6869718e+03   7.6842798e+03   7.6870121e+03   7.6951007e+03   7.7083920e+03   7.7266544e+03   7.7495887e+03   7.7768391e+03   7.8080059e+03   7.8426591e+03   7.8803509e+03   7.9206294e+03   7.9630495e+03   8.0071841e+03   8.0526328e+03   8.0990292e+03   8.1460461e+03   8.1933989e+03   8.2408473e+03   8.2881951e+03   8.3352884e+03   8.3820128e+03   8.4282898e+03   8.4740716e+03   8.5193365e+03   8.5640835e+03   8.6083269e+03   8.6520916e+03   8.6954081e+03   8.7383090e+03   8.7808250e+03   8.8229822e+03   8.8648000e+03   8.9062895e+03   8.9474524e+03   8.9882810e+03   9.0287579e+03   9.0688565e+03
9.7496251e+03   9.7167864e+03   9.6814499e+03   9.6437249e+03   9.6037738e+03   9.5618130e+03   9.5181127e+03   9.4729942e+03   9.4268252e+03   9.3800136e+03   9.3329986e+03   9.2862406e+03   9.2402091e+03   9.1953697e+03   9.1521700e+03   9.1110260e+03   9.0723078e+03   9.0363274e+03   9.0033271e+03   8.9734708e+03   8.9468377e+03   8.9234183e+03   8.9031148e+03   8.8857440e+03   8.8710440e+03   8.8586840e+03   8.8482763e+03   8.8393918e+03   8.8315756e+03   8.8243652e+03   8.8173071e+03   8.8099747e+03   8.8019833e+03   8.7930037e+03   8.7827735e+03   8.7711048e+03   8.7578888e+03   8.7430969e+03   8.7267785e+03   8.7090553e+03   8.6901131e+03   8.6701909e+03   8.6495687e+03   8.6285535e+03   8.6074655e+03   8.5866241e+03   8.5663346e+03   8.5468763e+03   8.5284925e+03   8.5113814e+03   8.4956910e+03   8.4815139e+03   8.4688863e+03   8.4577872e+03   8.4481406e+03   8.4398184e+03   8.4326449e+03   8.4264016e+03   8.4208339e+03   8.4156566e+03   8.4105611e+03   8.4052221e+03   8.3993047e+03   8.3924716e+03   8.3843902e+03   8.3747406e+03   8.3632230e+03   8.3495654e+03   8.3335321e+03   8.3149314e+03   8.2936230e+03   8.2695258e+03   8.2426241e+03   8.2129730e+03   8.1807026e+03   8.1460205e+03   8.1092113e+03   8.0706355e+03   8.0307243e+03   7.9899733e+03   7.9489326e+03   7.9081957e+03   7.8683855e+03   7.8301398e+03   7.7940950e+03   7.7608696e+03   7.7310482e+03   7.7051656e+03   7.6836934e+03   7.6670273e+03   7.6554780e+03   7.6492639e+03   7.6485079e+03   7.6532364e+03   7.6633816e+03   7.6787873e+03   7.6992165e+03   7.7243615e+03   7.7538562e+03   7.7872885e+03   7.8242147e+03   7.8641725e+03   7.9066946e+03   7.9513212e+03   7.9976105e+03   8.0451485e+03   8.0935563e+03   8.1424956e+03   8.1916726e+03   8.2408391e+03   8.2897930e+03   8.3383764e+03   8.3864725e+03   8.4340017e+03   8.4809168e+03   8.5271980e+03   8.5728471e+03   8.6178822e+03   8.6623325e+03   8.7062338e+03   8.7496239e+03   8.7925391e+03   8.8350111e+03   8.8770653e+03   8.9187182e+03   8.9599772e+03   9.0008399e+03   9.0412940e+03   9.0813179e+03
9.7438173e+03   9.7104197e+03   9.6745027e+03   9.6361788e+03   9.5956135e+03   9.5530268e+03   9.5086921e+03   9.4629342e+03   9.4161238e+03   9.3686714e+03   9.3210186e+03   9.2736271e+03   9.2269671e+03   9.1815039e+03   9.1376837e+03   9.0959198e+03   9.0565788e+03   9.0199676e+03   8.9863226e+03   8.9558005e+03   8.9284720e+03   8.9043188e+03   8.8832331e+03   8.8650216e+03   8.8494120e+03   8.8360628e+03   8.8245765e+03   8.8145143e+03   8.8054129e+03   8.7968021e+03   8.7882227e+03   8.7792435e+03   8.7694772e+03   8.7585941e+03   8.7463333e+03   8.7325103e+03   8.7170222e+03   8.6998481e+03   8.6810474e+03   8.6607534e+03   8.6391656e+03   8.6165383e+03   8.5931681e+03   8.5693804e+03   8.5455146e+03   8.5219103e+03   8.4988940e+03   8.4767667e+03   8.4557939e+03   8.4361964e+03   8.4181447e+03   8.4017539e+03   8.3870820e+03   8.3741294e+03   8.3628402e+03   8.3531052e+03   8.3447655e+03   8.3376179e+03   8.3314198e+03   8.3258955e+03   8.3207424e+03   8.3156376e+03   8.3102450e+03   8.3042217e+03   8.2972259e+03   8.2889243e+03   8.2789998e+03   8.2671602e+03   8.2531463e+03   8.2367402e+03   8.2177743e+03   8.1961386e+03   8.1717885e+03   8.1447507e+03   8.1151281e+03   8.0831029e+03   8.0489372e+03   8.0129718e+03   7.9756219e+03   7.9373705e+03   7.8987593e+03   7.8603766e+03   7.8228443e+03   7.7868020e+03   7.7528906e+03   7.7217357e+03   7.6939303e+03   7.6700189e+03   7.6504831e+03   7.6357284e+03   7.6260747e+03   7.6217487e+03   7.6228795e+03   7.6294982e+03   7.6415400e+03   7.6588490e+03   7.6811870e+03   7.7082431e+03   7.7396461e+03   7.7749774e+03   7.8137857e+03   7.8556003e+03   7.8999450e+03   7.9463506e+03   7.9943666e+03   8.0435703e+03   8.0935748e+03   8.1440349e+03   8.1946505e+03   8.2451686e+03   8.2953832e+03   8.3451335e+03   8.3943012e+03   8.4428062e+03   8.4906016e+03   8.5376688e+03   8.5840117e+03   8.6296509e+03   8.6746188e+03   8.7189547e+03   8.7627001e+03   8.8058953e+03   8.8485764e+03   8.8907726e+03   8.9325049e+03   8.9737848e+03   9.0146138e+03   9.0549838e+03   9.0948770e+03
9.7378544e+03   9.7039130e+03   9.6674363e+03   9.6285403e+03   9.5873944e+03   9.5442221e+03   9.4993010e+03   9.4529590e+03   9.4055704e+03   9.3575487e+03   9.3093373e+03   9.2613997e+03   9.2142068e+03   9.1682234e+03   9.1238946e+03   9.0816312e+03   9.0417962e+03   9.0046918e+03   8.9705487e+03   8.9395166e+03   8.9116587e+03   8.8869479e+03   8.8652674e+03   8.8464141e+03   8.8301056e+03   8.8159906e+03   8.8036617e+03   8.7926704e+03   8.7825448e+03   8.7728064e+03   8.7629891e+03   8.7526558e+03   8.7414147e+03   8.7289332e+03   8.7149489e+03   8.6992779e+03   8.6818193e+03   8.6625564e+03   8.6415541e+03   8.6189538e+03   8.5949644e+03   8.5698516e+03   8.5439254e+03   8.5175260e+03   8.4910096e+03   8.4647341e+03   8.4390458e+03   8.4142670e+03   8.3906855e+03   8.3685460e+03   8.3480430e+03   8.3293169e+03   8.3124508e+03   8.2974702e+03   8.2843441e+03   8.2729867e+03   8.2632615e+03   8.2549855e+03   8.2479338e+03   8.2418459e+03   8.2364305e+03   8.2313726e+03   8.2263396e+03   8.2209878e+03   8.2149704e+03   8.2079443e+03   8.1995786e+03   8.1895631e+03   8.1776168e+03   8.1634972e+03   8.1470091e+03   8.1280136e+03   8.1064355e+03   8.0822708e+03   8.0555921e+03   8.0265523e+03   7.9953860e+03   7.9624088e+03   7.9280134e+03   7.8926636e+03   7.8568851e+03   7.8212539e+03   7.7863828e+03   7.7529054e+03   7.7214602e+03   7.6926724e+03   7.6671374e+03   7.6454038e+03   7.6279583e+03   7.6152130e+03   7.6074943e+03   7.6050358e+03   7.6079731e+03   7.6163432e+03   7.6300860e+03   7.6490500e+03   7.6729998e+03   7.7016262e+03   7.7345587e+03   7.7713788e+03   7.8116337e+03   7.8548509e+03   7.9005519e+03   7.9482646e+03   7.9975354e+03   8.0479386e+03   8.0990843e+03   8.1506243e+03   8.2022563e+03   8.2537251e+03   8.3048230e+03   8.3553880e+03   8.4053012e+03   8.4544821e+03   8.5028843e+03   8.5504897e+03   8.5973031e+03   8.6433466e+03   8.6886542e+03   8.7332669e+03   8.7772286e+03   8.8205817e+03   8.8633646e+03   8.9056090e+03   8.9473385e+03   8.9885671e+03   9.0292993e+03   9.0695294e+03   9.1092425e+03
9.7316786e+03   9.6972040e+03   9.6601841e+03   9.6207387e+03   9.5790416e+03   9.5353206e+03   9.4898574e+03   9.4429839e+03   9.3950780e+03   9.3465561e+03   9.2978641e+03   9.2494672e+03   9.2018368e+03   9.1554378e+03   9.1107138e+03   9.0680734e+03   9.0278763e+03   8.9904202e+03   8.9559302e+03   8.9245499e+03   8.8963350e+03   8.8712504e+03   8.8491707e+03   8.8298837e+03   8.8130975e+03   8.7984512e+03   8.7855277e+03   8.7738693e+03   8.7629947e+03   8.7524170e+03   8.7416618e+03   8.7302849e+03   8.7178884e+03   8.7041342e+03   8.6887562e+03   8.6715676e+03   8.6524662e+03   8.6314357e+03   8.6085431e+03   8.5839336e+03   8.5578217e+03   8.5304809e+03   8.5022309e+03   8.4734238e+03   8.4444299e+03   8.4156233e+03   8.3873687e+03   8.3600090e+03   8.3338543e+03   8.3091735e+03   8.2861870e+03   8.2650620e+03   8.2459097e+03   8.2287837e+03   8.2136814e+03   8.2005446e+03   8.1892635e+03   8.1796799e+03   8.1715916e+03   8.1647574e+03   8.1589028e+03   8.1537249e+03   8.1488994e+03   8.1440863e+03   8.1389376e+03   8.1331045e+03   8.1262455e+03   8.1180352e+03   8.1081733e+03   8.0963944e+03   8.0824769e+03   8.0662530e+03   8.0476166e+03   8.0265318e+03   8.0030384e+03   7.9772570e+03   7.9493907e+03   7.9197249e+03   7.8886243e+03   7.8565272e+03   7.8239363e+03   7.7914078e+03   7.7595380e+03   7.7289471e+03   7.7002632e+03   7.6741045e+03   7.6510618e+03   7.6316819e+03   7.6164519e+03   7.6057863e+03   7.6000154e+03   7.5993779e+03   7.6040157e+03   7.6139723e+03   7.6291950e+03   7.6495394e+03   7.6747772e+03   7.7046061e+03   7.7386623e+03   7.7765331e+03   7.8177713e+03   7.8619092e+03   7.9084726e+03   7.9569932e+03   8.0070204e+03   8.0581312e+03   8.1099377e+03   8.1620936e+03   8.2142977e+03   8.2662957e+03   8.3178807e+03   8.3688913e+03   8.4192086e+03   8.4687524e+03   8.5174763e+03   8.5653623e+03   8.6124151e+03   8.6586570e+03   8.7041220e+03   8.7488513e+03   8.7928888e+03   8.8362776e+03   8.8790565e+03   8.9212579e+03   8.9629062e+03   9.0040164e+03   9.0445941e+03   9.0846350e+03   9.1241258e+03
9.7252274e+03   9.6902254e+03   9.6526736e+03   9.6126967e+03   9.5704730e+03   9.5262355e+03   9.4802702e+03   9.4329136e+03   9.3845473e+03   9.3355909e+03   9.2864932e+03   9.2377209e+03   9.1897464e+03   9.1430343e+03   9.0980271e+03   9.0551313e+03   9.0147032e+03   8.9770364e+03   8.9423509e+03   8.9107841e+03   8.8823848e+03   8.8571105e+03   8.8348276e+03   8.8153153e+03   8.7982729e+03   8.7833302e+03   8.7700607e+03   8.7579973e+03   8.7466495e+03   8.7355211e+03   8.7241292e+03   8.7120211e+03   8.6987907e+03   8.6840932e+03   8.6676557e+03   8.6492862e+03   8.6288783e+03   8.6064125e+03   8.5819546e+03   8.5556499e+03   8.5277152e+03   8.4984283e+03   8.4681154e+03   8.4371378e+03   8.4058773e+03   8.3747222e+03   8.3440542e+03   8.3142357e+03   8.2855988e+03   8.2584369e+03   8.2329969e+03   8.2094743e+03   8.1880099e+03   8.1686879e+03   8.1515364e+03   8.1365280e+03   8.1235826e+03   8.1125703e+03   8.1033151e+03   8.0955993e+03   8.0891683e+03   8.0837358e+03   8.0789893e+03   8.0745967e+03   8.0702124e+03   8.0654855e+03   8.0600673e+03   8.0536206e+03   8.0458287e+03   8.0364053e+03   8.0251046e+03   8.0117309e+03   7.9961481e+03   7.9782878e+03   7.9581561e+03   7.9358392e+03   7.9115057e+03   7.8854070e+03   7.8578753e+03   7.8293174e+03   7.8002072e+03   7.7710744e+03   7.7424912e+03   7.7150575e+03   7.6893836e+03   7.6660733e+03   7.6457064e+03   7.6288219e+03   7.6159020e+03   7.6073593e+03   7.6035249e+03   7.6046408e+03   7.6108542e+03   7.6222161e+03   7.6386826e+03   7.6601195e+03   7.6863094e+03   7.7169621e+03   7.7517255e+03   7.7901993e+03   7.8319481e+03   7.8765160e+03   7.9234395e+03   7.9722607e+03   8.0225383e+03   8.0738574e+03   8.1258376e+03   8.1781387e+03   8.2304646e+03   8.2825652e+03   8.3342364e+03   8.3853192e+03   8.4356959e+03   8.4852869e+03   8.5340457e+03   8.5819537e+03   8.6290147e+03   8.6752496e+03   8.7206910e+03   8.7653786e+03   8.8093547e+03   8.8526607e+03   8.8953342e+03   8.9374064e+03   8.9789007e+03   9.0198316e+03   9.0602040e+03   9.1000137e+03   9.1392475e+03
9.7184351e+03   9.6829059e+03   9.6448280e+03   9.6043316e+03   9.5616006e+03   9.5168731e+03   9.4704404e+03   9.4226437e+03   9.3738688e+03   9.3245390e+03   9.2751056e+03   9.2260373e+03   9.1778074e+03   9.1308804e+03   9.0856977e+03   9.0426636e+03   9.0021313e+03   8.9643901e+03   8.9296551e+03   8.8980579e+03   8.8696408e+03   8.8443540e+03   8.8220563e+03   8.8025187e+03   8.7854320e+03   8.7704170e+03   8.7570384e+03   8.7448196e+03   8.7332609e+03   8.7218566e+03   8.7101143e+03   8.6975721e+03   8.6838149e+03   8.6684889e+03   8.6513130e+03   8.6320876e+03   8.6106995e+03   8.5871237e+03   8.5614215e+03   8.5337358e+03   8.5042827e+03   8.4733413e+03   8.4412420e+03   8.4083524e+03   8.3750639e+03   8.3417772e+03   8.3088894e+03   8.2767813e+03   8.2458066e+03   8.2162827e+03   8.1884831e+03   8.1626321e+03   8.1389009e+03   8.1174053e+03   8.0982056e+03   8.0813068e+03   8.0666602e+03   8.0541663e+03   8.0436774e+03   8.0350018e+03   8.0279077e+03   8.0221277e+03   8.0173646e+03   8.0132967e+03   8.0095847e+03   8.0058786e+03   8.0018261e+03   7.9970815e+03   7.9913148e+03   7.9842222e+03   7.9755360e+03   7.9650353e+03   7.9525551e+03   7.9379956e+03   7.9213295e+03   7.9026078e+03   7.8819629e+03   7.8596099e+03   7.8358444e+03   7.8110378e+03   7.7856296e+03   7.7601171e+03   7.7350424e+03   7.7109777e+03   7.6885089e+03   7.6682187e+03   7.6506693e+03   7.6363855e+03   7.6258398e+03   7.6194382e+03   7.6175093e+03   7.6202961e+03   7.6279501e+03   7.6405298e+03   7.6580014e+03   7.6802433e+03   7.7070529e+03   7.7381559e+03   7.7732177e+03   7.8118556e+03   7.8536526e+03   7.8981705e+03   7.9449632e+03   7.9935893e+03   8.0436227e+03   8.0946625e+03   8.1463405e+03   8.1983272e+03   8.2503352e+03   8.3021216e+03   8.3534879e+03   8.4042787e+03   8.4543788e+03   8.5037097e+03   8.5522245e+03   8.5999037e+03   8.6467490e+03   8.6927789e+03   8.7380230e+03   8.7825176e+03   8.8263019e+03   8.8694138e+03   8.9118877e+03   8.9537518e+03   8.9950269e+03   9.0357249e+03   9.0758490e+03   9.1153935e+03   9.1543440e+03
9.7112338e+03   9.6751715e+03   9.6365673e+03   9.5955575e+03   9.5523319e+03   9.5071347e+03   9.4602630e+03   9.4120630e+03   9.3629251e+03   9.3132764e+03   9.2635711e+03   9.2142799e+03   9.1658770e+03   9.1188267e+03   9.0735692e+03   9.0305065e+03   8.9899885e+03   8.9523006e+03   8.9176525e+03   8.8861702e+03   8.8578896e+03   8.8327541e+03   8.8106147e+03   8.7912348e+03   8.7742967e+03   8.7594130e+03   8.7461393e+03   8.7339901e+03   8.7224561e+03   8.7110224e+03   8.6991866e+03   8.6864769e+03   8.6724685e+03   8.6567976e+03   8.6391737e+03   8.6193880e+03   8.5973187e+03   8.5729335e+03   8.5462873e+03   8.5175182e+03   8.4868396e+03   8.4545302e+03   8.4209220e+03   8.3863874e+03   8.3513257e+03   8.3161483e+03   8.2812665e+03   8.2470784e+03   8.2139582e+03   8.1822466e+03   8.1522432e+03   8.1242006e+03   8.0983200e+03   8.0747489e+03   8.0535796e+03   8.0348494e+03   8.0185416e+03   8.0045874e+03   7.9928682e+03   7.9832191e+03   7.9754321e+03   7.9692606e+03   7.9644244e+03   7.9606146e+03   7.9575004e+03   7.9547362e+03   7.9519692e+03   7.9488484e+03   7.9450344e+03   7.9402093e+03   7.9340872e+03   7.9264248e+03   7.9170314e+03   7.9057779e+03   7.8926050e+03   7.8775291e+03   7.8606465e+03   7.8421343e+03   7.8222497e+03   7.8013254e+03   7.7797625e+03   7.7580210e+03   7.7366074e+03   7.7160602e+03   7.6969346e+03   7.6797859e+03   7.6651523e+03   7.6535391e+03   7.6454032e+03   7.6411397e+03   7.6410713e+03   7.6454390e+03   7.6543973e+03   7.6680118e+03   7.6862598e+03   7.7090341e+03   7.7361495e+03   7.7673517e+03   7.8023278e+03   7.8407183e+03   7.8821297e+03   7.9261475e+03   7.9723491e+03   8.0203150e+03   8.0696402e+03   8.1199428e+03   8.1708716e+03   8.2221118e+03   8.2733887e+03   8.3244693e+03   8.3751629e+03   8.4253195e+03   8.4748274e+03   8.5236094e+03   8.5716188e+03   8.6188342e+03   8.6652548e+03   8.7108953e+03   8.7557808e+03   8.7999431e+03   8.8434161e+03   8.8862328e+03   8.9284226e+03   8.9700090e+03   9.0110083e+03   9.0514288e+03   9.0912702e+03   9.1305236e+03   9.1691726e+03
9.7035549e+03   9.6669475e+03   9.6278103e+03   9.5862862e+03   9.5425722e+03   9.4969189e+03   9.4496295e+03   9.4010559e+03   9.3515934e+03   9.3016731e+03   9.2517523e+03   9.2023034e+03   9.1538017e+03   9.1067109e+03   9.0614700e+03   9.0184783e+03   8.9780823e+03   8.9405627e+03   8.9061243e+03   8.8748869e+03   8.8468800e+03   8.8220399e+03   8.8002104e+03   8.7811468e+03   8.7645236e+03   8.7499449e+03   8.7369577e+03   8.7250677e+03   8.7137563e+03   8.7024991e+03   8.6907841e+03   8.6781295e+03   8.6641001e+03   8.6483220e+03   8.6304946e+03   8.6103990e+03   8.5879044e+03   8.5629698e+03   8.5356430e+03   8.5060561e+03   8.4744186e+03   8.4410073e+03   8.4061551e+03   8.3702380e+03   8.3336617e+03   8.2968476e+03   8.2602197e+03   8.2241924e+03   8.1891592e+03   8.1554829e+03   8.1234879e+03   8.0934537e+03   8.0656103e+03   8.0401351e+03   8.0171511e+03   7.9967266e+03   7.9788754e+03   7.9635580e+03   7.9506841e+03   7.9401147e+03   7.9316656e+03   7.9251111e+03   7.9201883e+03   7.9166028e+03   7.9140341e+03   7.9121433e+03   7.9105799e+03   7.9089915e+03   7.9070329e+03   7.9043762e+03   7.9007216e+03   7.8958075e+03   7.8894212e+03   7.8814079e+03   7.8716792e+03   7.8602191e+03   7.8470887e+03   7.8324277e+03   7.8164541e+03   7.7994601e+03   7.7818057e+03   7.7639101e+03   7.7462394e+03   7.7292938e+03   7.7135922e+03   7.6996566e+03   7.6879958e+03   7.6790896e+03   7.6733745e+03   7.6712304e+03   7.6729696e+03   7.6788289e+03   7.6889637e+03   7.7034457e+03   7.7222633e+03   7.7453252e+03   7.7724658e+03   7.8034536e+03   7.8380013e+03   7.8757767e+03   7.9164148e+03   7.9595300e+03   8.0047279e+03   8.0516166e+03   8.0998169e+03   8.1489706e+03   8.1987479e+03   8.2488526e+03   8.2990257e+03   8.3490471e+03   8.3987360e+03   8.4479494e+03   8.4965802e+03   8.5445531e+03   8.5918213e+03   8.6383615e+03   8.6841694e+03   8.7292551e+03   8.7736383e+03   8.8173444e+03   8.8604009e+03   8.9028343e+03   8.9446672e+03   8.9859172e+03   9.0265945e+03   9.0667021e+03   9.1062349e+03   9.1451801e+03   9.1835174e+03
9.6953306e+03   9.6581598e+03   9.6184762e+03   9.5764305e+03   9.5322270e+03   9.4861238e+03   9.4384307e+03   9.3895056e+03   9.3397490e+03   9.2895963e+03   9.2395076e+03   9.1899575e+03   9.1414215e+03   9.0943630e+03   9.0492189e+03   9.0063857e+03   8.9662056e+03   8.9289547e+03   8.8948318e+03   8.8639505e+03   8.8363332e+03   8.8119089e+03   8.7905138e+03   8.7718954e+03   8.7557201e+03   8.7415836e+03   8.7290245e+03   8.7175399e+03   8.7066022e+03   8.6956778e+03   8.6842453e+03   8.6718131e+03   8.6579362e+03   8.6422308e+03   8.6243861e+03   8.6041738e+03   8.5814536e+03   8.5561763e+03   8.5283822e+03   8.4981977e+03   8.4658281e+03   8.4315483e+03   8.3956917e+03   8.3586375e+03   8.3207973e+03   8.2826016e+03   8.2444866e+03   8.2068817e+03   8.1701983e+03   8.1348198e+03   8.1010933e+03   8.0693230e+03   8.0397652e+03   8.0126245e+03   7.9880518e+03   7.9661431e+03   7.9469398e+03   7.9304291e+03   7.9165460e+03   7.9051753e+03   7.8961545e+03   7.8892775e+03   7.8842987e+03   7.8809379e+03   7.8788863e+03   7.8778130e+03   7.8773731e+03   7.8772159e+03   7.8769943e+03   7.8763750e+03   7.8750490e+03   7.8727416e+03   7.8692230e+03   7.8643172e+03   7.8579108e+03   7.8499590e+03   7.8404904e+03   7.8296092e+03   7.8174947e+03   7.8043984e+03   7.7906381e+03   7.7765894e+03   7.7626754e+03   7.7493536e+03   7.7371021e+03   7.7264048e+03   7.7177358e+03   7.7115446e+03   7.7082422e+03   7.7081886e+03   7.7116823e+03   7.7189525e+03   7.7301531e+03   7.7453608e+03   7.7645746e+03   7.7877192e+03   7.8146500e+03   7.8451607e+03   7.8789923e+03   7.9158433e+03   7.9553810e+03   7.9972529e+03   8.0410974e+03   8.0865543e+03   8.1332744e+03   8.1809275e+03   8.2292090e+03   8.2778446e+03   8.3265939e+03   8.3752523e+03   8.4236507e+03   8.4716547e+03   8.5191626e+03   8.5661019e+03   8.6124257e+03   8.6581087e+03   8.7031425e+03   8.7475319e+03   8.7912899e+03   8.8344349e+03   8.8769865e+03   8.9189632e+03   8.9603800e+03   9.0012466e+03   9.0415664e+03   9.0813356e+03   9.1205431e+03   9.1591708e+03   9.1971941e+03
9.6864963e+03   9.6487371e+03   9.6084872e+03   9.5659055e+03   9.5212046e+03   9.4746503e+03   9.4265597e+03   9.3772973e+03   9.3272690e+03   9.2769142e+03   9.2266965e+03   9.1770917e+03   9.1285757e+03   9.0816109e+03   9.0366316e+03   8.9940307e+03   8.9541457e+03   8.9172467e+03   8.8835263e+03   8.8530907e+03   8.8259550e+03   8.8020401e+03   8.7811740e+03   8.7630961e+03   8.7474644e+03   8.7338663e+03   8.7218321e+03   8.7108503e+03   8.7003848e+03   8.6898934e+03   8.6788459e+03   8.6667416e+03   8.6531266e+03   8.6376080e+03   8.6198660e+03   8.5996638e+03   8.5768528e+03   8.5513766e+03   8.5232692e+03   8.4926521e+03   8.4597275e+03   8.4247693e+03   8.3881119e+03   8.3501380e+03   8.3112656e+03   8.2719340e+03   8.2325909e+03   8.1936796e+03   8.1556280e+03   8.1188380e+03   8.0836770e+03   8.0504708e+03   8.0194985e+03   7.9909880e+03   7.9651137e+03   7.9419951e+03   7.9216965e+03   7.9042273e+03   7.8895435e+03   7.8775500e+03   7.8681029e+03   7.8610129e+03   7.8560499e+03   7.8529472e+03   7.8514076e+03   7.8511102e+03   7.8517173e+03   7.8528832e+03   7.8542632e+03   7.8555235e+03   7.8563509e+03   7.8564634e+03   7.8556197e+03   7.8536287e+03   7.8503570e+03   7.8457358e+03   7.8397654e+03   7.8325174e+03   7.8241351e+03   7.8148300e+03   7.8048778e+03   7.7946098e+03   7.7844036e+03   7.7746716e+03   7.7658475e+03   7.7583729e+03   7.7526828e+03   7.7491917e+03   7.7482806e+03   7.7502856e+03   7.7554872e+03   7.7641036e+03   7.7762848e+03   7.7921103e+03   7.8115886e+03   7.8346604e+03   7.8612023e+03   7.8910343e+03   7.9239276e+03   7.9596140e+03   7.9977960e+03   8.0381572e+03   8.0803720e+03   8.1241158e+03   8.1690729e+03   8.2149443e+03   8.2614534e+03   8.3083511e+03   8.3554182e+03   8.4024673e+03   8.4493432e+03   8.4959213e+03   8.5421063e+03   8.5878291e+03   8.6330429e+03   8.6777204e+03   8.7218489e+03   8.7654271e+03   8.8084611e+03   8.8509609e+03   8.8929375e+03   8.9344004e+03   8.9753558e+03   9.0158047e+03   9.0557422e+03   9.0951569e+03   9.1340309e+03   9.1723398e+03   9.2100536e+03
9.6769916e+03   9.6386133e+03   9.5977707e+03   9.5546319e+03   9.5094185e+03   9.4624047e+03   9.4139154e+03   9.3643219e+03   9.3140357e+03   9.2635007e+03   9.2131832e+03   9.1635604e+03   9.1151080e+03   9.0682866e+03   9.0235273e+03   8.9812184e+03   8.9416916e+03   8.9052104e+03   8.8719595e+03   8.8420372e+03   8.8154499e+03   8.7921096e+03   8.7718357e+03   8.7543585e+03   8.7393273e+03   8.7263211e+03   8.7148616e+03   8.7044292e+03   8.6944797e+03   8.6844631e+03   8.6738410e+03   8.6621053e+03   8.6487943e+03   8.6335075e+03   8.6159181e+03   8.5957825e+03   8.5729461e+03   8.5473471e+03   8.5190154e+03   8.4880698e+03   8.4547114e+03   8.4192145e+03   8.3819163e+03   8.3432044e+03   8.3035036e+03   8.2632624e+03   8.2229397e+03   8.1829920e+03   8.1438619e+03   8.1059674e+03   8.0696932e+03   8.0353832e+03   8.0033346e+03   7.9737937e+03   7.9469532e+03   7.9229502e+03   7.9018661e+03   7.8837265e+03   7.8685033e+03   7.8561158e+03   7.8464340e+03   7.8392822e+03   7.8344426e+03   7.8316604e+03   7.8306497e+03   7.8310998e+03   7.8326822e+03   7.8350594e+03   7.8378930e+03   7.8408535e+03   7.8436297e+03   7.8459380e+03   7.8475324e+03   7.8482129e+03   7.8478326e+03   7.8463046e+03   7.8436061e+03   7.8397807e+03   7.8349386e+03   7.8292544e+03   7.8229626e+03   7.8163506e+03   7.8097500e+03   7.8035259e+03   7.7980653e+03   7.7937643e+03   7.7910151e+03   7.7901932e+03   7.7916456e+03   7.7956799e+03   7.8025554e+03   7.8124756e+03   7.8255835e+03   7.8419591e+03   7.8616187e+03   7.8845177e+03   7.9105538e+03   7.9395735e+03   7.9713789e+03   8.0057365e+03   8.0423859e+03   8.0810488e+03   8.1214384e+03   8.1632679e+03   8.2062578e+03   8.2501428e+03   8.2946772e+03   8.3396388e+03   8.3848320e+03   8.4300885e+03   8.4752682e+03   8.5202578e+03   8.5649694e+03   8.6093374e+03   8.6533162e+03   8.6968762e+03   8.7400004e+03   8.7826814e+03   8.8249174e+03   8.8667097e+03   8.9080602e+03   8.9489687e+03   8.9894316e+03   9.0294405e+03   9.0689815e+03   9.1080349e+03   9.1465749e+03   9.1845704e+03   9.2219851e+03
9.6667633e+03   9.6277294e+03   9.5862618e+03   9.5425386e+03   9.4967910e+03   9.4493023e+03   9.4004057e+03   9.3504797e+03   9.2999415e+03   9.2492394e+03   9.1988423e+03   9.1492285e+03   9.1008726e+03   9.0542328e+03   9.0097360e+03   8.9677647e+03   8.9286436e+03   8.8926283e+03   8.8598945e+03   8.8305310e+03   8.8045342e+03   8.7818063e+03   8.7621567e+03   8.7453060e+03   8.7308942e+03   8.7184913e+03   8.7076106e+03   8.6977244e+03   8.6882813e+03   8.6787238e+03   8.6685072e+03   8.6571171e+03   8.6440861e+03   8.6290084e+03   8.6115524e+03   8.5914705e+03   8.5686049e+03   8.5428914e+03   8.5143591e+03   8.4831268e+03   8.4493972e+03   8.4134482e+03   8.3756217e+03   8.3363122e+03   8.2959527e+03   8.2550015e+03   8.2139288e+03   8.1732034e+03   8.1332809e+03   8.0945932e+03   8.0575385e+03   8.0224744e+03   7.9897114e+03   7.9595084e+03   7.9320699e+03   7.9075441e+03   7.8860222e+03   7.8675397e+03   7.8520768e+03   7.8395616e+03   7.8298725e+03   7.8228422e+03   7.8182617e+03   7.8158858e+03   7.8154384e+03   7.8166191e+03   7.8191104e+03   7.8225855e+03   7.8267165e+03   7.8311830e+03   7.8356814e+03   7.8399337e+03   7.8436957e+03   7.8467656e+03   7.8489902e+03   7.8502713e+03   7.8505688e+03   7.8499039e+03   7.8483585e+03   7.8460735e+03   7.8432449e+03   7.8401174e+03   7.8369770e+03   7.8341411e+03   7.8319482e+03   7.8307465e+03   7.8308826e+03   7.8326895e+03   7.8364767e+03   7.8425196e+03   7.8510522e+03   7.8622600e+03   7.8762758e+03   7.8931772e+03   7.9129863e+03   7.9356711e+03   7.9611494e+03   7.9892934e+03   8.0199363e+03   8.0528795e+03   8.0879001e+03   8.1247597e+03   8.1632113e+03   8.2030075e+03   8.2439069e+03   8.2856798e+03   8.3281129e+03   8.3710130e+03   8.4142091e+03   8.4575540e+03   8.5009238e+03   8.5442176e+03   8.5873555e+03   8.6302767e+03   8.6729366e+03   8.7153039e+03   8.7573575e+03   8.7990835e+03   8.8404726e+03   8.8815171e+03   8.9222091e+03   8.9625384e+03   9.0024912e+03   9.0420493e+03   9.0811892e+03   9.1198823e+03   9.1580947e+03   9.1957876e+03   9.2329184e+03
9.6557670e+03   9.6160360e+03   9.5739057e+03   9.5295651e+03   9.4832557e+03   9.4352705e+03   9.3859514e+03   9.3356843e+03   9.2848925e+03   9.2340285e+03   9.1835636e+03   9.1339763e+03   9.0857400e+03   9.0393091e+03   8.9951052e+03   8.9535039e+03   8.9148215e+03   8.8793039e+03   8.8471164e+03   8.8183366e+03   8.7929496e+03   8.7708462e+03   8.7518245e+03   8.7355944e+03   8.7217858e+03   8.7099592e+03   8.6996193e+03   8.6902308e+03   8.6812352e+03   8.6720691e+03   8.6621827e+03   8.6510571e+03   8.6382216e+03   8.6232678e+03   8.6058625e+03   8.5857571e+03   8.5627945e+03   8.5369119e+03   8.5081409e+03   8.4766044e+03   8.4425104e+03   8.4061434e+03   8.3678535e+03   8.3280440e+03   8.2871581e+03   8.2456652e+03   8.2040467e+03   8.1627831e+03   8.1223415e+03   8.0831645e+03   8.0456606e+03   8.0101961e+03   7.9770894e+03   7.9466055e+03   7.9189538e+03   7.8942860e+03   7.8726958e+03   7.8542203e+03   7.8388413e+03   7.8264881e+03   7.8170414e+03   7.8103368e+03   7.8061700e+03   7.8043020e+03   7.8044650e+03   7.8063686e+03   7.8097074e+03   7.8141677e+03   7.8194356e+03   7.8252052e+03   7.8311863e+03   7.8371128e+03   7.8427499e+03   7.8479012e+03   7.8524148e+03   7.8561881e+03   7.8591711e+03   7.8613682e+03   7.8628386e+03   7.8636939e+03   7.8640951e+03   7.8642466e+03   7.8643898e+03   7.8647948e+03   7.8657511e+03   7.8675575e+03   7.8705126e+03   7.8749045e+03   7.8810016e+03   7.8890440e+03   7.8992367e+03   7.9117439e+03   7.9266848e+03   7.9441316e+03   7.9641091e+03   7.9865961e+03   8.0115282e+03   8.0388020e+03   8.0682807e+03   8.0997999e+03   8.1331746e+03   8.1682057e+03   8.2046871e+03   8.2424113e+03   8.2811757e+03   8.3207873e+03   8.3610665e+03   8.4018500e+03   8.4429931e+03   8.4843699e+03   8.5258744e+03   8.5674185e+03   8.6089317e+03   8.6503582e+03   8.6916552e+03   8.7327901e+03   8.7737380e+03   8.8144790e+03   8.8549960e+03   8.8952726e+03   8.9352909e+03   8.9750308e+03   9.0144682e+03   9.0535747e+03   9.0923171e+03   9.1306576e+03   9.1685538e+03   9.2059592e+03   9.2428242e+03
9.6439691e+03   9.6034954e+03   9.5606604e+03   9.5156646e+03   9.4687606e+03   9.4202518e+03   9.3704892e+03   9.3198663e+03   9.2688127e+03   9.2177849e+03   9.1672562e+03   9.1177050e+03   9.0696022e+03   9.0233978e+03   8.9795067e+03   8.9382961e+03   8.9000723e+03   8.8650698e+03   8.8334416e+03   8.8052526e+03   8.7804747e+03   8.7589856e+03   8.7405708e+03   8.7249282e+03   8.7116766e+03   8.7003665e+03   8.6904938e+03   8.6815156e+03   8.6728671e+03   8.6639803e+03   8.6543017e+03   8.6433104e+03   8.6305347e+03   8.6155668e+03   8.5980753e+03   8.5778148e+03   8.5546326e+03   8.5284715e+03   8.4993704e+03   8.4674604e+03   8.4329590e+03   8.3961611e+03   8.3574282e+03   8.3171756e+03   8.2758588e+03   8.2339593e+03   8.1919704e+03   8.1503834e+03   8.1096753e+03   8.0702966e+03   8.0326620e+03   7.9971421e+03   7.9640569e+03   7.9336710e+03   7.9061913e+03   7.8817652e+03   7.8604810e+03   7.8423692e+03   7.8274051e+03   7.8155124e+03   7.8065667e+03   7.8004013e+03   7.7968116e+03   7.7955614e+03   7.7963891e+03   7.7990139e+03   7.8031429e+03   7.8084780e+03   7.8147228e+03   7.8215905e+03   7.8288100e+03   7.8361338e+03   7.8433432e+03   7.8502552e+03   7.8567265e+03   7.8626577e+03   7.8679958e+03   7.8727354e+03   7.8769185e+03   7.8806325e+03   7.8840075e+03   7.8872107e+03   7.8904412e+03   7.8939227e+03   7.8978957e+03   7.9026092e+03   7.9083123e+03   7.9152458e+03   7.9236345e+03   7.9336804e+03   7.9455564e+03   7.9594016e+03   7.9753184e+03   7.9933704e+03   8.0135823e+03   8.0359405e+03   8.0603960e+03   8.0868680e+03   8.1152475e+03   8.1454034e+03   8.1771870e+03   8.2104383e+03   8.2449911e+03   8.2806782e+03   8.3173358e+03   8.3548079e+03   8.3929489e+03   8.4316262e+03   8.4707216e+03   8.5101321e+03   8.5497695e+03   8.5895599e+03   8.6294423e+03   8.6693671e+03   8.7092938e+03   8.7491892e+03   8.7890248e+03   8.8287754e+03   8.8684164e+03   8.9079230e+03   8.9472678e+03   8.9864208e+03   9.0253476e+03   9.0640098e+03   9.1023647e+03   9.1403651e+03   9.1779600e+03   9.2150953e+03   9.2517142e+03
9.6313494e+03   9.5900841e+03   9.5464990e+03   9.5008066e+03   9.4532712e+03   9.4042073e+03   9.3539753e+03   9.3029770e+03   9.2516478e+03   9.2004483e+03   9.1498535e+03   9.1003409e+03   9.0523783e+03   9.0064097e+03   8.9628424e+03   8.9220333e+03   8.8842772e+03   8.8497953e+03   8.8187265e+03   8.7911208e+03   8.7669351e+03   8.7460325e+03   8.7281840e+03   8.7130743e+03   8.7003100e+03   8.6894309e+03   8.6799239e+03   8.6712387e+03   8.6628050e+03   8.6540512e+03   8.6444222e+03   8.6333972e+03   8.6205064e+03   8.6053461e+03   8.5875904e+03   8.5670011e+03   8.5434344e+03   8.5168436e+03   8.4872792e+03   8.4548853e+03   8.4198934e+03   8.3826130e+03   8.3434206e+03   8.3027464e+03   8.2610605e+03   8.2188580e+03   8.1766444e+03   8.1349215e+03   8.0941739e+03   8.0548578e+03   8.0173899e+03   7.9821400e+03   7.9494238e+03   7.9194991e+03   7.8925626e+03   7.8687498e+03   7.8481352e+03   7.8307350e+03   7.8165100e+03   7.8053705e+03   7.7971810e+03   7.7917660e+03   7.7889162e+03   7.7883946e+03   7.7899434e+03   7.7932907e+03   7.7981565e+03   7.8042603e+03   7.8113265e+03   7.8190914e+03   7.8273088e+03   7.8357556e+03   7.8442365e+03   7.8525887e+03   7.8606849e+03   7.8684365e+03   7.8757945e+03   7.8827503e+03   7.8893349e+03   7.8956170e+03   7.9016999e+03   7.9077176e+03   7.9138294e+03   7.9202144e+03   7.9270650e+03   7.9345802e+03   7.9429590e+03   7.9523934e+03   7.9630628e+03   7.9751282e+03   7.9887274e+03   8.0039719e+03   8.0209437e+03   8.0396948e+03   8.0602460e+03   8.0825889e+03   8.1066868e+03   8.1324785e+03   8.1598809e+03   8.1887936e+03   8.2191030e+03   8.2506863e+03   8.2834163e+03   8.3171649e+03   8.3518069e+03   8.3872226e+03   8.4233006e+03   8.4599388e+03   8.4970462e+03   8.5345425e+03   8.5723582e+03   8.6104340e+03   8.6487193e+03   8.6871710e+03   8.7257518e+03   8.7644283e+03   8.8031696e+03   8.8419454e+03   8.8807247e+03   8.9194743e+03   8.9581581e+03   8.9967365e+03   9.0351654e+03   9.0733968e+03   9.1113783e+03   9.1490538e+03   9.1863641e+03   9.2232473e+03   9.2596396e+03
9.6179022e+03   9.5757948e+03   9.5314118e+03   9.4849789e+03   9.4367727e+03   9.3871190e+03   9.3363885e+03   9.2849911e+03   9.2333685e+03   9.1819850e+03   9.1313168e+03   9.0818400e+03   9.0340181e+03   8.9882885e+03   8.9450488e+03   8.9046447e+03   8.8673570e+03   8.8333922e+03   8.8028730e+03   8.7758325e+03   8.7522107e+03   8.7318539e+03   8.7145174e+03   8.6998711e+03   8.6875082e+03   8.6769573e+03   8.6676959e+03   8.6591664e+03   8.6507941e+03   8.6420049e+03   8.6322438e+03   8.6209928e+03   8.6077870e+03   8.5922300e+03   8.5740054e+03   8.5528866e+03   8.5287433e+03   8.5015439e+03   8.4713555e+03   8.4383399e+03   8.4027470e+03   8.3649050e+03   8.3252092e+03   8.2841076e+03   8.2420873e+03   8.1996583e+03   8.1573387e+03   8.1156399e+03   8.0750529e+03   8.0360361e+03   7.9990049e+03   7.9643231e+03   7.9322968e+03   7.9031697e+03   7.8771220e+03   7.8542692e+03   7.8346645e+03   7.8183019e+03   7.8051204e+03   7.7950098e+03   7.7878167e+03   7.7833517e+03   7.7813958e+03   7.7817080e+03   7.7840323e+03   7.7881041e+03   7.7936573e+03   7.8004301e+03   7.8081708e+03   7.8166427e+03   7.8256292e+03   7.8349373e+03   7.8444012e+03   7.8538852e+03   7.8632851e+03   7.8725296e+03   7.8815806e+03   7.8904330e+03   7.8991125e+03   7.9076747e+03   7.9162008e+03   7.9247954e+03   7.9335811e+03   7.9426947e+03   7.9522820e+03   7.9624925e+03   7.9734750e+03   7.9853719e+03   7.9983158e+03   8.0124246e+03   8.0277989e+03   8.0445195e+03   8.0626455e+03   8.0822135e+03   8.1032380e+03   8.1257118e+03   8.1496079e+03   8.1748814e+03   8.2014723e+03   8.2293086e+03   8.2583089e+03   8.2883860e+03   8.3194497e+03   8.3514097e+03   8.3841778e+03   8.4176702e+03   8.4518087e+03   8.4865215e+03   8.5217444e+03   8.5574201e+03   8.5934980e+03   8.6299337e+03   8.6666876e+03   8.7037237e+03   8.7410087e+03   8.7785098e+03   8.8161943e+03   8.8540278e+03   8.8919733e+03   8.9299904e+03   8.9680349e+03   9.0060581e+03   9.0440069e+03   9.0818242e+03   9.1194486e+03   9.1568155e+03   9.1938574e+03   9.2305052e+03   9.2666884e+03
9.6036388e+03   9.5606382e+03   9.5154089e+03   9.4681904e+03   9.4192726e+03   9.3689929e+03   9.3177327e+03   9.2659103e+03   9.2139737e+03   9.1623908e+03   9.1116385e+03   9.0621910e+03   9.0145065e+03   8.9690143e+03   8.9261015e+03   8.8861003e+03   8.8492766e+03   8.8158195e+03   8.7858338e+03   8.7593337e+03   8.7362403e+03   8.7163814e+03   8.6994948e+03   8.6852341e+03   8.6731783e+03   8.6628439e+03   8.6536987e+03   8.6451784e+03   8.6367042e+03   8.6277011e+03   8.6176162e+03   8.6059364e+03   8.5922051e+03   8.5760364e+03   8.5571274e+03   8.5352674e+03   8.5103441e+03   8.4823456e+03   8.4513604e+03   8.4175724e+03   8.3812544e+03   8.3427574e+03   8.3024985e+03   8.2609470e+03   8.2186083e+03   8.1760089e+03   8.1336796e+03   8.0921408e+03   8.0518880e+03   8.0133792e+03   7.9770246e+03   7.9431775e+03   7.9121286e+03   7.8841022e+03   7.8592545e+03   7.8376746e+03   7.8193872e+03   7.8043568e+03   7.7924939e+03   7.7836614e+03   7.7776823e+03   7.7743479e+03   7.7734256e+03   7.7746673e+03   7.7778162e+03   7.7826148e+03   7.7888105e+03   7.7961620e+03   7.8044433e+03   7.8134484e+03   7.8229942e+03   7.8329230e+03   7.8431041e+03   7.8534343e+03   7.8638387e+03   7.8742699e+03   7.8847069e+03   7.8951536e+03   7.9056366e+03   7.9162029e+03   7.9269170e+03   7.9378576e+03   7.9491141e+03   7.9607836e+03   7.9729671e+03   7.9857661e+03   7.9992794e+03   8.0135998e+03   8.0288120e+03   8.0449899e+03   8.0621948e+03   8.0804747e+03   8.0998629e+03   8.1203782e+03   8.1420252e+03   8.1647952e+03   8.1886674e+03   8.2136104e+03   8.2395840e+03   8.2665413e+03   8.2944308e+03   8.3231981e+03   8.3527879e+03   8.3831456e+03   8.4142184e+03   8.4459567e+03   8.4783146e+03   8.5112499e+03   8.5447246e+03   8.5787041e+03   8.6131569e+03   8.6480535e+03   8.6833657e+03   8.7190655e+03   8.7551238e+03   8.7915095e+03   8.8281889e+03   8.8651243e+03   8.9022736e+03   8.9395903e+03   8.9770227e+03   9.0145141e+03   9.0520032e+03   9.0894241e+03   9.1267073e+03   9.1637802e+03   9.2005679e+03   9.2369940e+03   9.2729819e+03
9.5885884e+03   9.5446444e+03   9.4985212e+03   9.4504728e+03   9.4008025e+03   9.3498606e+03   9.2980391e+03   9.2457651e+03   9.1934929e+03   9.1416937e+03   9.0908450e+03   9.0414181e+03   8.9938653e+03   8.9486066e+03   8.9060171e+03   8.8664142e+03   8.8300468e+03   8.7970852e+03   8.7676140e+03   8.7416268e+03   8.7190238e+03   8.6996126e+03   8.6831116e+03   8.6691572e+03   8.6573130e+03   8.6470827e+03   8.6379243e+03   8.6292670e+03   8.6205289e+03   8.6111353e+03   8.6005372e+03   8.5882292e+03   8.5737653e+03   8.5567740e+03   8.5369696e+03   8.5141613e+03   8.4882590e+03   8.4592750e+03   8.4273234e+03   8.3926148e+03   8.3554485e+03   8.3162020e+03   8.2753176e+03   8.2332875e+03   8.1906380e+03   8.1479123e+03   8.1056543e+03   8.0643923e+03   8.0246245e+03   7.9868061e+03   7.9513382e+03   7.9185596e+03   7.8887406e+03   7.8620803e+03   7.8387054e+03   7.8186723e+03   7.8019709e+03   7.7885304e+03   7.7782264e+03   7.7708895e+03   7.7663142e+03   7.7642682e+03   7.7645019e+03   7.7667568e+03   7.7707743e+03   7.7763024e+03   7.7831026e+03   7.7909546e+03   7.7996604e+03   7.8090471e+03   7.8189686e+03   7.8293064e+03   7.8399692e+03   7.8508916e+03   7.8620330e+03   7.8733751e+03   7.8849193e+03   7.8966839e+03   7.9087013e+03   7.9210150e+03   7.9336767e+03   7.9467434e+03   7.9602747e+03   7.9743310e+03   7.9889707e+03   8.0042489e+03   8.0202155e+03   8.0369144e+03   8.0543822e+03   8.0726479e+03   8.0917327e+03   8.1116498e+03   8.1324047e+03   8.1539961e+03   8.1764161e+03   8.1996513e+03   8.2236840e+03   8.2484931e+03   8.2740551e+03   8.3003454e+03   8.3273388e+03   8.3550111e+03   8.3833392e+03   8.4123017e+03   8.4418793e+03   8.4720549e+03   8.5028131e+03   8.5341404e+03   8.5660241e+03   8.5984517e+03   8.6314105e+03   8.6648862e+03   8.6988622e+03   8.7333186e+03   8.7682315e+03   8.8035722e+03   8.8393066e+03   8.8753949e+03   8.9117910e+03   8.9484430e+03   8.9852927e+03   9.0222764e+03   9.0593254e+03   9.0963662e+03   9.1333218e+03   9.1701121e+03   9.2066554e+03   9.2428690e+03   9.2786701e+03
9.5727995e+03   9.5278646e+03   9.4808023e+03   9.4318815e+03   9.3814200e+03   9.3297811e+03   9.2773679e+03   9.2246166e+03   9.1719876e+03   9.1199556e+03   9.0689981e+03   9.0195829e+03   8.9721554e+03   8.9271257e+03   8.8848553e+03   8.8456454e+03   8.8097262e+03   8.7772475e+03   8.7482720e+03   8.7227708e+03   8.7006215e+03   8.6816098e+03   8.6654334e+03   8.6517101e+03   8.6399872e+03   8.6297552e+03   8.6204622e+03   8.6115312e+03   8.6023780e+03   8.5924295e+03   8.5811428e+03   8.5680220e+03   8.5526351e+03   8.5346278e+03   8.5137351e+03   8.4897900e+03   8.4627284e+03   8.4325910e+03   8.3995212e+03   8.3637600e+03   8.3256368e+03   8.2855585e+03   8.2439949e+03   8.2014634e+03   8.1585121e+03   8.1157016e+03   8.0735883e+03   8.0327077e+03   7.9935587e+03   7.9565909e+03   7.9221933e+03   7.8906861e+03   7.8623151e+03   7.8372493e+03   7.8155809e+03   7.7973285e+03   7.7824419e+03   7.7708098e+03   7.7622685e+03   7.7566117e+03   7.7536014e+03   7.7529783e+03   7.7544726e+03   7.7578139e+03   7.7627397e+03   7.7690033e+03   7.7763797e+03   7.7846707e+03   7.7937072e+03   7.8033516e+03   7.8134972e+03   7.8240675e+03   7.8350139e+03   7.8463128e+03   7.8579619e+03   7.8699759e+03   7.8823831e+03   7.8952206e+03   7.9085307e+03   7.9223577e+03   7.9367444e+03   7.9517299e+03   7.9673476e+03   7.9836239e+03   8.0005775e+03   8.0182191e+03   8.0365516e+03   8.0555709e+03   8.0752662e+03   8.0956218e+03   8.1166181e+03   8.1382328e+03   8.1604423e+03   8.1832229e+03   8.2065520e+03   8.2304092e+03   8.2547770e+03   8.2796415e+03   8.3049928e+03   8.3308251e+03   8.3571370e+03   8.3839311e+03   8.4112135e+03   8.4389936e+03   8.4672831e+03   8.4960951e+03   8.5254434e+03   8.5553411e+03   8.5858000e+03   8.6168291e+03   8.6484338e+03   8.6806147e+03   8.7133669e+03   8.7466792e+03   8.7805333e+03   8.8149034e+03   8.8497563e+03   8.8850505e+03   8.9207372e+03   8.9567599e+03   8.9930552e+03   9.0295533e+03   9.0661790e+03   9.1028522e+03   9.1394890e+03   9.1760031e+03   9.2123064e+03   9.2483103e+03   9.2839268e+03
9.5563408e+03   9.5103716e+03   9.4623289e+03   9.4124973e+03   9.3612094e+03   9.3088419e+03   9.2558094e+03   9.2025575e+03   9.1495529e+03   9.0972733e+03   9.0461960e+03   8.9967848e+03   8.9494777e+03   8.9046733e+03   8.8627187e+03   8.8238976e+03   8.7884201e+03   8.7564138e+03   8.7279180e+03   8.7028794e+03   8.6811517e+03   8.6624970e+03   8.6465913e+03   8.6330326e+03   8.6213513e+03   8.6110242e+03   8.6014896e+03   8.5921648e+03   8.5824640e+03   8.5718174e+03   8.5596894e+03   8.5455965e+03   8.5291228e+03   8.5099343e+03   8.4877900e+03   8.4625498e+03   8.4341793e+03   8.4027509e+03   8.3684409e+03   8.3315233e+03   8.2923607e+03   8.2513915e+03   8.2091151e+03   8.1660754e+03   8.1228425e+03   8.0799949e+03   8.0381008e+03   7.9977012e+03   7.9592942e+03   7.9233212e+03   7.8901560e+03   7.8600970e+03   7.8333617e+03   7.8100850e+03   7.7903207e+03   7.7740452e+03   7.7611645e+03   7.7515230e+03   7.7449139e+03   7.7410909e+03   7.7397804e+03   7.7406937e+03   7.7435391e+03   7.7480322e+03   7.7539057e+03   7.7609176e+03   7.7688563e+03   7.7775456e+03   7.7868465e+03   7.7966573e+03   7.8069123e+03   7.8175790e+03   7.8286538e+03   7.8401568e+03   7.8521268e+03   7.8646149e+03   7.8776790e+03   7.8913784e+03   7.9057690e+03   7.9208991e+03   7.9368062e+03   7.9535150e+03   7.9710359e+03   7.9893647e+03   8.0084832e+03   8.0283605e+03   8.0489545e+03   8.0702150e+03   8.0920853e+03   8.1145058e+03   8.1374166e+03   8.1607594e+03   8.1844809e+03   8.2085339e+03   8.2328797e+03   8.2574884e+03   8.2823405e+03   8.3074265e+03   8.3327470e+03   8.3583123e+03   8.3841414e+03   8.4102606e+03   8.4367025e+03   8.4635042e+03   8.4907056e+03   8.5183481e+03   8.5464721e+03   8.5751162e+03   8.6043149e+03   8.6340976e+03   8.6644872e+03   8.6954989e+03   8.7271395e+03   8.7594063e+03   8.7922871e+03   8.8257599e+03   8.8597927e+03   8.8943436e+03   8.9293617e+03   8.9647871e+03   9.0005521e+03   9.0365820e+03   9.0727960e+03   9.1091082e+03   9.1454292e+03   9.1816667e+03   9.2177272e+03   9.2535171e+03   9.2889435e+03
9.5393013e+03   9.4922604e+03   9.4432019e+03   9.3924265e+03   9.3402821e+03   9.2871593e+03   9.2334847e+03   9.1797131e+03   9.1263175e+03   9.0737790e+03   9.0225739e+03   8.9731618e+03   8.9259723e+03   8.8813920e+03   8.8397526e+03   8.8013189e+03   8.7662795e+03   8.7347388e+03   8.7067109e+03   8.6821172e+03   8.6607857e+03   8.6424540e+03   8.6267752e+03   8.6133267e+03   8.6016216e+03   8.5911227e+03   8.5812587e+03   8.5714415e+03   8.5610850e+03   8.5496238e+03   8.5365318e+03   8.5213393e+03   8.5036493e+03   8.4831506e+03   8.4596290e+03   8.4329744e+03   8.4031849e+03   8.3703672e+03   8.3347332e+03   8.2965927e+03   8.2563432e+03   8.2144563e+03   8.1714621e+03   8.1279314e+03   8.0844569e+03   8.0416340e+03   8.0000418e+03   7.9602255e+03   7.9226801e+03   7.8878366e+03   7.8560511e+03   7.8275971e+03   7.8026606e+03   7.7813397e+03   7.7636465e+03   7.7495123e+03   7.7387966e+03   7.7312967e+03   7.7267604e+03   7.7248993e+03   7.7254026e+03   7.7279506e+03   7.7322281e+03   7.7379361e+03   7.7448018e+03   7.7525868e+03   7.7610930e+03   7.7701662e+03   7.7796969e+03   7.7896201e+03   7.7999113e+03   7.8105826e+03   7.8216760e+03   7.8332569e+03   7.8454064e+03   7.8582134e+03   7.8717677e+03   7.8861530e+03   7.9014409e+03   7.9176868e+03   7.9349259e+03   7.9531717e+03   7.9724146e+03   7.9926232e+03   8.0137456e+03   8.0357123e+03   8.0584393e+03   8.0818325e+03   8.1057918e+03   8.1302154e+03   8.1550038e+03   8.1800640e+03   8.2053128e+03   8.2306793e+03   8.2561073e+03   8.2815564e+03   8.3070027e+03   8.3324392e+03   8.3578743e+03   8.3833315e+03   8.4088470e+03   8.4344680e+03   8.4602504e+03   8.4862561e+03   8.5125507e+03   8.5392009e+03   8.5662718e+03   8.5938252e+03   8.6219170e+03   8.6505956e+03   8.6799004e+03   8.7098607e+03   8.7404944e+03   8.7718077e+03   8.8037946e+03   8.8364371e+03   8.8697052e+03   8.9035574e+03   8.9379414e+03   8.9727952e+03   9.0080476e+03   9.0436198e+03   9.0794265e+03   9.1153772e+03   9.1513775e+03   9.1873304e+03   9.2231376e+03   9.2587010e+03   9.2939236e+03
9.5217903e+03   9.4736482e+03   9.4235458e+03   9.3718008e+03   9.3187769e+03   9.2648787e+03   9.2105450e+03   9.1562402e+03   9.1024437e+03   9.0496394e+03   8.9983029e+03   8.9488889e+03   8.9018180e+03   8.8574643e+03   8.8161429e+03   8.7780989e+03   8.7434984e+03   8.7124211e+03   8.6848553e+03   8.6606953e+03   8.6397429e+03   8.6217100e+03   8.6062261e+03   8.5928475e+03   8.5810695e+03   8.5703410e+03   8.5600814e+03   8.5496981e+03   8.5386055e+03   8.5262440e+03   8.5120983e+03   8.4957149e+03   8.4767176e+03   8.4548206e+03   8.4298385e+03   8.4016938e+03   8.3704194e+03   8.3361588e+03   8.2991613e+03   8.2597739e+03   8.2184305e+03   8.1756368e+03   8.1319541e+03   8.0879799e+03   8.0443289e+03   8.0016126e+03   7.9604197e+03   7.9212976e+03   7.8847364e+03   7.8511543e+03   7.8208875e+03   7.7941820e+03   7.7711904e+03   7.7519713e+03   7.7364930e+03   7.7246403e+03   7.7162240e+03   7.7109932e+03   7.7086492e+03   7.7088604e+03   7.7112779e+03   7.7155505e+03   7.7213392e+03   7.7283296e+03   7.7362428e+03   7.7448439e+03   7.7539475e+03   7.7634205e+03   7.7731829e+03   7.7832051e+03   7.7935035e+03   7.8041339e+03   7.8151840e+03   7.8267639e+03   7.8389970e+03   7.8520106e+03   7.8659269e+03   7.8808551e+03   7.8968846e+03   7.9140795e+03   7.9324753e+03   7.9520769e+03   7.9728583e+03   7.9947639e+03   8.0177117e+03   8.0415971e+03   8.0662977e+03   8.0916789e+03   8.1175999e+03   8.1439191e+03   8.1705000e+03   8.1972163e+03   8.2239557e+03   8.2506241e+03   8.2771476e+03   8.3034742e+03   8.3295749e+03   8.3554427e+03   8.3810920e+03   8.4065566e+03   8.4318874e+03   8.4571494e+03   8.4824189e+03   8.5077795e+03   8.5333197e+03   8.5591288e+03   8.5852944e+03   8.6118990e+03   8.6390182e+03   8.6667180e+03   8.6950531e+03   8.7240658e+03   8.7537849e+03   8.7842251e+03   8.8153867e+03   8.8472559e+03   8.8798053e+03   8.9129944e+03   8.9467703e+03   8.9810694e+03   9.0158183e+03   9.0509350e+03   9.0863307e+03   9.1219109e+03   9.1575773e+03   9.1932288e+03   9.2287634e+03   9.2640791e+03   9.2990756e+03
9.5039373e+03   9.4546733e+03   9.4035083e+03   9.3507768e+03   9.2968587e+03   9.2421730e+03   9.1871711e+03   9.1323266e+03   9.0781258e+03   9.0250550e+03   8.9735889e+03   8.9241770e+03   8.8772305e+03   8.8331102e+03   8.7921138e+03   8.7544662e+03   8.7203102e+03   8.6896997e+03   8.6625960e+03   8.6388661e+03   8.6182843e+03   8.6005364e+03   8.5852278e+03   8.5718932e+03   8.5600102e+03   8.5490142e+03   8.5383155e+03   8.5273178e+03   8.5154372e+03   8.5021210e+03   8.4868666e+03   8.4692383e+03   8.4488826e+03   8.4255409e+03   8.3990591e+03   8.3693938e+03   8.3366148e+03   8.3009037e+03   8.2625485e+03   8.2219349e+03   8.1795332e+03   8.1358838e+03   8.0915785e+03   8.0472412e+03   8.0035076e+03   7.9610035e+03   7.9203257e+03   7.8820220e+03   7.8465753e+03   7.8143894e+03   7.7857781e+03   7.7609584e+03   7.7400474e+03   7.7230630e+03   7.7099286e+03   7.7004813e+03   7.6944829e+03   7.6916340e+03   7.6915891e+03   7.6939737e+03   7.6984008e+03   7.7044879e+03   7.7118720e+03   7.7202235e+03   7.7292573e+03   7.7387410e+03   7.7485010e+03   7.7584248e+03   7.7684599e+03   7.7786109e+03   7.7889332e+03   7.7995249e+03   7.8105173e+03   7.8220638e+03   7.8343290e+03   7.8474776e+03   7.8616640e+03   7.8770230e+03   7.8936623e+03   7.9116564e+03   7.9310429e+03   7.9518207e+03   7.9739502e+03   7.9973555e+03   8.0219280e+03   8.0475321e+03   8.0740109e+03   8.1011934e+03   8.1289016e+03   8.1569579e+03   8.1851917e+03   8.2134455e+03   8.2415802e+03   8.2694794e+03   8.2970520e+03   8.3242347e+03   8.3509921e+03   8.3773164e+03   8.4032258e+03   8.4287625e+03   8.4539894e+03   8.4789867e+03   8.5038478e+03   8.5286756e+03   8.5535781e+03   8.5786648e+03   8.6040428e+03   8.6298137e+03   8.6560701e+03   8.6828941e+03   8.7103543e+03   8.7385052e+03   8.7673854e+03   8.7970178e+03   8.8274088e+03   8.8585492e+03   8.8904141e+03   8.9229644e+03   8.9561476e+03   8.9898992e+03   9.0241440e+03   9.0587980e+03   9.0937695e+03   9.1289612e+03   9.1642715e+03   9.1995962e+03   9.2348301e+03   9.2698683e+03   9.3046074e+03
9.4858904e+03   9.4354948e+03   9.3832589e+03   9.3295345e+03   9.2747175e+03   9.2192420e+03   9.1635715e+03   9.1081895e+03   9.0535885e+03   9.0002576e+03   8.9486703e+03   8.8992703e+03   8.8524593e+03   8.8085841e+03   8.7679249e+03   8.7306853e+03   8.6969841e+03   8.6668491e+03   8.6402140e+03   8.6169176e+03   8.5967064e+03   8.5792397e+03   8.5640985e+03   8.5507961e+03   8.5387925e+03   8.5275099e+03   8.5163503e+03   8.5047146e+03   8.4920215e+03   8.4777268e+03   8.4613419e+03   8.4424506e+03   8.4207236e+03   8.3959315e+03   8.3679527e+03   8.3367798e+03   8.3025206e+03   8.2653958e+03   8.2257330e+03   8.1839565e+03   8.1405736e+03   8.0961583e+03   8.0513325e+03   8.0067452e+03   7.9630513e+03   7.9208897e+03   7.8808628e+03   7.8435172e+03   7.8093266e+03   7.7786780e+03   7.7518616e+03   7.7290638e+03   7.7103651e+03   7.6957421e+03   7.6850728e+03   7.6781467e+03   7.6746770e+03   7.6743163e+03   7.6766733e+03   7.6813313e+03   7.6878663e+03   7.6958651e+03   7.7049414e+03   7.7147504e+03   7.7250004e+03   7.7354613e+03   7.7459702e+03   7.7564328e+03   7.7668228e+03   7.7771762e+03   7.7875849e+03   7.7981864e+03   7.8091526e+03   7.8206778e+03   7.8329653e+03   7.8462151e+03   7.8606125e+03   7.8763171e+03   7.8934550e+03   7.9121117e+03   7.9323285e+03   7.9541007e+03   7.9773780e+03   8.0020677e+03   8.0280390e+03   8.0551293e+03   8.0831521e+03   8.1119044e+03   8.1411759e+03   8.1707569e+03   8.2004464e+03   8.2300593e+03   8.2594322e+03   8.2884283e+03   8.3169411e+03   8.3448960e+03   8.3722513e+03   8.3989977e+03   8.4251559e+03   8.4507745e+03   8.4759262e+03   8.5007037e+03   8.5252150e+03   8.5495791e+03   8.5739210e+03   8.5983674e+03   8.6230423e+03   8.6480636e+03   8.6735393e+03   8.6995651e+03   8.7262224e+03   8.7535762e+03   8.7816744e+03   8.8105472e+03   8.8402067e+03   8.8706481e+03   8.9018494e+03   8.9337732e+03   8.9663675e+03   8.9995678e+03   9.0332978e+03   9.0674720e+03   9.1019968e+03   9.1367727e+03   9.1716958e+03   9.2066594e+03   9.2415559e+03   9.2762779e+03   9.3107198e+03
9.4678150e+03   9.4162904e+03   9.3629875e+03   9.3082754e+03   9.2525665e+03   9.1963095e+03   9.1399804e+03   9.0840725e+03   9.0290844e+03   8.9755079e+03   8.9238149e+03   8.8744433e+03   8.8277849e+03   8.7841721e+03   8.7438671e+03   8.7070519e+03   8.6738208e+03   8.6441752e+03   8.6180208e+03   8.5951678e+03   8.5753349e+03   8.5581547e+03   8.5431837e+03   8.5299145e+03   8.5177895e+03   8.5062184e+03   8.4945958e+03   8.4823207e+03   8.4688157e+03   8.4535463e+03   8.4360392e+03   8.4158992e+03   8.3928229e+03   8.3666111e+03   8.3371764e+03   8.3045480e+03   8.2688727e+03   8.2304110e+03   8.1895300e+03   8.1466926e+03   8.1024423e+03   8.0573860e+03   8.0121742e+03   7.9674794e+03   7.9239739e+03   7.8823076e+03   7.8430866e+03   7.8068539e+03   7.7740722e+03   7.7451105e+03   7.7202334e+03   7.6995959e+03   7.6832416e+03   7.6711053e+03   7.6630204e+03   7.6587294e+03   7.6578982e+03   7.6601325e+03   7.6649968e+03   7.6720340e+03   7.6807845e+03   7.6908054e+03   7.7016883e+03   7.7130733e+03   7.7246619e+03   7.7362253e+03   7.7476098e+03   7.7587377e+03   7.7696053e+03   7.7802775e+03   7.7908787e+03   7.8015819e+03   7.8125963e+03   7.8241528e+03   7.8364901e+03   7.8498409e+03   7.8644187e+03   7.8804068e+03   7.8979486e+03   7.9171412e+03   7.9380307e+03   7.9606108e+03   7.9848237e+03   8.0105634e+03   8.0376811e+03   8.0659925e+03   8.0952862e+03   8.1253327e+03   8.1558944e+03   8.1867345e+03   8.2176263e+03   8.2483609e+03   8.2787543e+03   8.3086521e+03   8.3379340e+03   8.3665157e+03   8.3943497e+03   8.4214245e+03   8.4477627e+03   8.4734180e+03   8.4984707e+03   8.5230236e+03   8.5471970e+03   8.5711229e+03   8.5949406e+03   8.6187910e+03   8.6428124e+03   8.6671365e+03   8.6918842e+03   8.7171631e+03   8.7430653e+03   8.7696650e+03   8.7970181e+03   8.8251612e+03   8.8541120e+03   8.8838694e+03   8.9144143e+03   8.9457111e+03   8.9777089e+03   9.0103431e+03   9.0435373e+03   9.0772050e+03   9.1112513e+03   9.1455753e+03   9.1800714e+03   9.2146311e+03   9.2491451e+03   9.2835042e+03   9.3176013e+03
9.4498919e+03   9.3972544e+03   9.3429016e+03   9.2872201e+03   9.2306387e+03   9.1736206e+03   9.1166544e+03   9.0602427e+03   9.0048905e+03   8.9510918e+03   8.8993166e+03   8.8499972e+03   8.8035147e+03   8.7601873e+03   8.7202586e+03   8.6838890e+03   8.6511481e+03   8.6220105e+03   8.5963538e+03   8.5739599e+03   8.5545194e+03   8.5376386e+03   8.5228501e+03   8.5096255e+03   8.4973911e+03   8.4855444e+03   8.4734738e+03   8.4605772e+03   8.4462824e+03   8.4300659e+03   8.4114711e+03   8.3901249e+03   8.3657511e+03   8.3381817e+03   8.3073644e+03   8.2733660e+03   8.2363724e+03   8.1966839e+03   8.1547073e+03   8.1109429e+03   8.0659696e+03   8.0204258e+03   7.9749890e+03   7.9303531e+03   7.8872059e+03   7.8462060e+03   7.8079611e+03   7.7730087e+03   7.7417987e+03   7.7146803e+03   7.6918919e+03   7.6735566e+03   7.6596806e+03   7.6501580e+03   7.6447780e+03   7.6432378e+03   7.6451574e+03   7.6500982e+03   7.6575826e+03   7.6671145e+03   7.6782010e+03   7.6903711e+03   7.7031949e+03   7.7162981e+03   7.7293750e+03   7.7421970e+03   7.7546176e+03   7.7665730e+03   7.7780792e+03   7.7892255e+03   7.8001646e+03   7.8111006e+03   7.8222748e+03   7.8339506e+03   7.8463977e+03   7.8598777e+03   7.8746295e+03   7.8908575e+03   7.9087218e+03   7.9283307e+03   7.9497359e+03   7.9729318e+03   7.9978558e+03   8.0243926e+03   8.0523800e+03   8.0816170e+03   8.1118729e+03   8.1428975e+03   8.1744315e+03   8.2062168e+03   8.2380061e+03   8.2695716e+03   8.3007124e+03   8.3312602e+03   8.3610834e+03   8.3900897e+03   8.4182269e+03   8.4454817e+03   8.4718779e+03   8.4974730e+03   8.5223534e+03   8.5466302e+03   8.5704329e+03   8.5939044e+03   8.6171950e+03   8.6404575e+03   8.6638416e+03   8.6874900e+03   8.7115342e+03   8.7360916e+03   8.7612628e+03   8.7871299e+03   8.8137553e+03   8.8411814e+03   8.8694301e+03   8.8985038e+03   8.9283862e+03   8.9590435e+03   8.9904257e+03   9.0224690e+03   9.0550967e+03   9.0882220e+03   9.1217495e+03   9.1555772e+03   9.1895985e+03   9.2237040e+03   9.2577830e+03   9.2917253e+03   9.3254227e+03
9.4323148e+03   9.3785949e+03   9.3232238e+03   9.2666053e+03   9.2091844e+03   9.1514388e+03   9.0938691e+03   9.0369874e+03   8.9813043e+03   8.9273162e+03   8.8754911e+03   8.8262550e+03   8.7799786e+03   8.7369653e+03   8.6974403e+03   8.6615420e+03   8.6293156e+03   8.6007087e+03   8.5755712e+03   8.5536568e+03   8.5346283e+03   8.5180663e+03   8.5034798e+03   8.4903207e+03   8.4779991e+03   8.4659022e+03   8.4534125e+03   8.4399285e+03   8.4248840e+03   8.4077678e+03   8.3881413e+03   8.3656544e+03   8.3400592e+03   8.3112199e+03   8.2791196e+03   8.2438631e+03   8.2056756e+03   8.1648969e+03   8.1219724e+03   8.0774393e+03   8.0319102e+03   7.9860535e+03   7.9405717e+03   7.8961780e+03   7.8535735e+03   7.8134231e+03   7.7763343e+03   7.7428371e+03   7.7133669e+03   7.6882522e+03   7.6677045e+03   7.6518144e+03   7.6405518e+03   7.6337703e+03   7.6312171e+03   7.6325456e+03   7.6373325e+03   7.6450969e+03   7.6553215e+03   7.6674743e+03   7.6810304e+03   7.6954929e+03   7.7104111e+03   7.7253967e+03   7.7401365e+03   7.7544005e+03   7.7680473e+03   7.7810237e+03   7.7933616e+03   7.8051701e+03   7.8166255e+03   7.8279574e+03   7.8394341e+03   7.8513458e+03   7.8639888e+03   7.8776490e+03   7.8925872e+03   7.9090266e+03   7.9271422e+03   7.9470529e+03   7.9688173e+03   7.9924318e+03   8.0178322e+03   8.0448978e+03   8.0734578e+03   8.1032999e+03   8.1341799e+03   8.1658331e+03   8.1979848e+03   8.2303613e+03   8.2627007e+03   8.2947614e+03   8.3263303e+03   8.3572289e+03   8.3873176e+03   8.4164984e+03   8.4447155e+03   8.4719546e+03   8.4982405e+03   8.5236338e+03   8.5482256e+03   8.5721332e+03   8.5954933e+03   8.6184570e+03   8.6411831e+03   8.6638332e+03   8.6865658e+03   8.7095320e+03   8.7328714e+03   8.7567089e+03   8.7811518e+03   8.8062881e+03   8.8321855e+03   8.8588907e+03   8.8864292e+03   8.9148064e+03   8.9440082e+03   8.9740022e+03   9.0047399e+03   9.0361577e+03   9.0681797e+03   9.1007187e+03   9.1336794e+03   9.1669593e+03   9.2004514e+03   9.2340456e+03   9.2676308e+03   9.3010961e+03   9.3343328e+03
9.4152872e+03   9.3605308e+03   9.3041882e+03   9.2466800e+03   9.1884670e+03   9.1300411e+03   9.0719147e+03   9.0146086e+03   8.9586392e+03   8.9045047e+03   8.8526708e+03   8.8035571e+03   8.7575237e+03   8.7148591e+03   8.6757703e+03   8.6403737e+03   8.6086900e+03   8.5806405e+03   8.5560474e+03   8.5346367e+03   8.5160444e+03   8.4998256e+03   8.4854670e+03   8.4724011e+03   8.4600236e+03   8.4477116e+03   8.4348435e+03   8.4208192e+03   8.4050799e+03   8.3871276e+03   8.3665426e+03   8.3429991e+03   8.3162781e+03   8.2862764e+03   8.2530130e+03   8.2166306e+03   8.1773933e+03   8.1356798e+03   8.0919731e+03   8.0468460e+03   8.0009432e+03   7.9549611e+03   7.9096250e+03   7.8656657e+03   7.8237948e+03   7.7846818e+03   7.7489317e+03   7.7170654e+03   7.6895027e+03   7.6665502e+03   7.6483922e+03   7.6350876e+03   7.6265701e+03   7.6226548e+03   7.6230483e+03   7.6273628e+03   7.6351340e+03   7.6458418e+03   7.6589318e+03   7.6738384e+03   7.6900076e+03   7.7069174e+03   7.7240979e+03   7.7411468e+03   7.7577426e+03   7.7736525e+03   7.7887375e+03   7.8029516e+03   7.8163382e+03   7.8290215e+03   7.8411956e+03   7.8531100e+03   7.8650540e+03   7.8773394e+03   7.8902832e+03   7.9041912e+03   7.9193424e+03   7.9359756e+03   7.9542789e+03   7.9743815e+03   7.9963491e+03   8.0201822e+03   8.0458179e+03   8.0731340e+03   8.1019558e+03   8.1320653e+03   8.1632112e+03   8.1951202e+03   8.2275087e+03   8.2600940e+03   8.2926054e+03   8.3247930e+03   8.3564367e+03   8.3873519e+03   8.4173943e+03   8.4464628e+03   8.4744999e+03   8.5014911e+03   8.5274626e+03   8.5524772e+03   8.5766297e+03   8.6000418e+03   8.6228556e+03   8.6452276e+03   8.6673229e+03   8.6893090e+03   8.7113505e+03   8.7336045e+03   8.7562160e+03   8.7793151e+03   8.8030138e+03   8.8274043e+03   8.8525580e+03   8.8785245e+03   8.9053322e+03   8.9329885e+03   8.9614810e+03   8.9907788e+03   9.0208341e+03   9.0515844e+03   9.0829541e+03   9.1148564e+03   9.1471960e+03   9.1798708e+03   9.2127735e+03   9.2457941e+03   9.2788215e+03   9.3117447e+03   9.3444548e+03
9.3990190e+03   9.3432880e+03   9.2860365e+03   9.2277014e+03   9.1687588e+03   9.1097141e+03   9.0510910e+03   8.9934189e+03   8.9372193e+03   8.8829917e+03   8.8311995e+03   8.7822555e+03   8.7365090e+03   8.6942339e+03   8.6556188e+03   8.6207585e+03   8.5896496e+03   8.5621875e+03   8.5381674e+03   8.5172883e+03   8.4991600e+03   8.4833135e+03   8.4692136e+03   8.4562751e+03   8.4438800e+03   8.4313968e+03   8.4182007e+03   8.4036942e+03   8.3873271e+03   8.3686155e+03   8.3471597e+03   8.3226586e+03   8.2949226e+03   8.2638815e+03   8.2295901e+03   8.1922286e+03   8.1520993e+03   8.1096190e+03   8.0653070e+03   8.0197699e+03   7.9736828e+03   7.9277680e+03   7.8827717e+03   7.8394395e+03   7.7984919e+03   7.7606008e+03   7.7263668e+03   7.6963003e+03   7.6708045e+03   7.6501637e+03   7.6345352e+03   7.6239461e+03   7.6182960e+03   7.6173628e+03   7.6208147e+03   7.6282254e+03   7.6390926e+03   7.6528596e+03   7.6689381e+03   7.6867317e+03   7.7056588e+03   7.7251747e+03   7.7447910e+03   7.7640915e+03   7.7827454e+03   7.8005153e+03   7.8172619e+03   7.8329426e+03   7.8476077e+03   7.8613914e+03   7.8744999e+03   7.8871965e+03   7.8997855e+03   7.9125941e+03   7.9259549e+03   7.9401886e+03   7.9555881e+03   7.9724050e+03   7.9908385e+03   8.0110273e+03   8.0330447e+03   8.0568972e+03   8.0825258e+03   8.1098108e+03   8.1385786e+03   8.1686109e+03   8.1996551e+03   8.2314360e+03   8.2636676e+03   8.2960646e+03   8.3283534e+03   8.3602819e+03   8.3916276e+03   8.4222044e+03   8.4518670e+03   8.4805138e+03   8.5080878e+03   8.5345754e+03   8.5600041e+03   8.5844392e+03   8.6079780e+03   8.6307450e+03   8.6528858e+03   8.6745603e+03   8.6959370e+03   8.7171872e+03   8.7384788e+03   8.7599722e+03   8.7818158e+03   8.8041423e+03   8.8270664e+03   8.8506827e+03   8.8750646e+03   8.9002637e+03   8.9263097e+03   8.9532116e+03   8.9809580e+03   9.0095190e+03   9.0388477e+03   9.0688822e+03   9.0995475e+03   9.1307575e+03   9.1624172e+03   9.1944250e+03   9.2266742e+03   9.2590551e+03   9.2914570e+03   9.3237693e+03   9.3558835e+03
9.3837233e+03   9.3270959e+03   9.2690140e+03   9.2099305e+03   9.1503360e+03   9.0907486e+03   9.0317028e+03   8.9737358e+03   8.9173736e+03   8.8631170e+03   8.8114263e+03   8.7627074e+03   8.7172991e+03   8.6754604e+03   8.6373616e+03   8.6030767e+03   8.5725786e+03   8.5457373e+03   8.5223220e+03   8.5020057e+03   8.4843730e+03   8.4689317e+03   8.4551264e+03   8.4423550e+03   8.4299874e+03   8.4173845e+03   8.4039197e+03   8.3889992e+03   8.3720821e+03   8.3526999e+03   8.3304731e+03   8.3051261e+03   8.2764986e+03   8.2445535e+03   8.2093809e+03   8.1711980e+03   8.1303441e+03   8.0872728e+03   8.0425380e+03   7.9967786e+03   7.9506979e+03   7.9050419e+03   7.8605755e+03   7.8180569e+03   7.7782135e+03   7.7417176e+03   7.7091640e+03   7.6810515e+03   7.6577658e+03   7.6395690e+03   7.6265914e+03   7.6188301e+03   7.6161512e+03   7.6182981e+03   7.6249032e+03   7.6355041e+03   7.6495639e+03   7.6664925e+03   7.6856705e+03   7.7064732e+03   7.7282942e+03   7.7505673e+03   7.7727863e+03   7.7945214e+03   7.8154315e+03   7.8352727e+03   7.8539022e+03   7.8712772e+03   7.8874503e+03   7.9025603e+03   7.9168196e+03   7.9304994e+03   7.9439129e+03   7.9573969e+03   7.9712937e+03   7.9859342e+03   8.0016211e+03   8.0186158e+03   8.0371266e+03   8.0573008e+03   8.0792198e+03   8.1028975e+03   8.1282818e+03   8.1552592e+03   8.1836617e+03   8.2132761e+03   8.2438545e+03   8.2751262e+03   8.3068088e+03   8.3386207e+03   8.3702917e+03   8.4015727e+03   8.4322442e+03   8.4621228e+03   8.4910660e+03   8.5189744e+03   8.5457934e+03   8.5715116e+03   8.5961588e+03   8.6198018e+03   8.6425401e+03   8.6644998e+03   8.6858279e+03   8.7066858e+03   8.7272434e+03   8.7476728e+03   8.7681432e+03   8.7888158e+03   8.8098397e+03   8.8313484e+03   8.8534574e+03   8.8762616e+03   8.8998352e+03   8.9242300e+03   8.9494765e+03   8.9755839e+03   9.0025416e+03   9.0303201e+03   9.0588732e+03   9.0881394e+03   9.1180446e+03   9.1485033e+03   9.1794214e+03   9.2106978e+03   9.2422268e+03   9.2738995e+03   9.3056059e+03   9.3372365e+03   9.3686835e+03
9.3696121e+03   9.3121825e+03   9.2533651e+03   9.1936274e+03   9.1334737e+03   9.0734344e+03   9.0140535e+03   8.9558754e+03   8.8994303e+03   8.8452192e+03   8.7936993e+03   8.7452695e+03   8.7002576e+03   8.6589082e+03   8.6213740e+03   8.5877080e+03   8.5578604e+03   8.5316770e+03   8.5089018e+03   8.4891828e+03   8.4720811e+03   8.4570824e+03   8.4436126e+03   8.4310541e+03   8.4187659e+03   8.4061029e+03   8.3924376e+03   8.3771810e+03   8.3598027e+03   8.3398498e+03   8.3169637e+03   8.2908943e+03   8.2615106e+03   8.2288080e+03   8.1929112e+03   8.1540731e+03   8.1126691e+03   8.0691874e+03   8.0242150e+03   7.9784207e+03   7.9325340e+03   7.8873223e+03   7.8435667e+03   7.8020361e+03   7.7634628e+03   7.7285176e+03   7.6977886e+03   7.6717617e+03   7.6508052e+03   7.6351587e+03   7.6249269e+03   7.6200777e+03   7.6204463e+03   7.6257435e+03   7.6355686e+03   7.6494268e+03   7.6667494e+03   7.6869161e+03   7.7092797e+03   7.7331900e+03   7.7580178e+03   7.7831772e+03   7.8081452e+03   7.8324779e+03   7.8558232e+03   7.8779286e+03   7.8986451e+03   7.9179259e+03   7.9358213e+03   7.9524693e+03   7.9680833e+03   7.9829363e+03   7.9973444e+03   8.0116480e+03   8.0261944e+03   8.0413193e+03   8.0573318e+03   8.0744995e+03   8.0930381e+03   8.1131027e+03   8.1347831e+03   8.1581020e+03   8.1830166e+03   8.2094232e+03   8.2371638e+03   8.2660354e+03   8.2958004e+03   8.3261980e+03   8.3569559e+03   8.3878019e+03   8.4184749e+03   8.4487342e+03   8.4783681e+03   8.5072000e+03   8.5350935e+03   8.5619546e+03   8.5877328e+03   8.6124204e+03   8.6360495e+03   8.6586891e+03   8.6804397e+03   8.7014279e+03   8.7218007e+03   8.7417190e+03   8.7613520e+03   8.7808706e+03   8.8004428e+03   8.8202284e+03   8.8403752e+03   8.8610153e+03   8.8822629e+03   8.9042119e+03   8.9269353e+03   8.9504845e+03   8.9748892e+03   9.0001585e+03   9.0262814e+03   9.0532288e+03   9.0809547e+03   9.1093982e+03   9.1384857e+03   9.1681327e+03   9.1982460e+03   9.2287256e+03   9.2594669e+03   9.2903622e+03   9.3213027e+03   9.3521802e+03   9.3828881e+03
