3.0149003e+04   3.0162845e+04   3.0177339e+04   3.0192421e+04   3.0208016e+04   3.0224033e+04   3.0240371e+04   3.0256919e+04   3.0273557e+04   3.0290157e+04   3.0306587e+04   3.0322713e+04   3.0338402e+04   3.0353525e+04   3.0367960e+04   3.0381594e+04   3.0394325e+04   3.0406067e+04   3.0416752e+04   3.0426327e+04   3.0434762e+04   3.0442042e+04   3.0448178e+04   3.0453195e+04   3.0457140e+04   3.0460075e+04   3.0462077e+04   3.0463235e+04   3.0463648e+04   3.0463423e+04   3.0462667e+04   3.0461494e+04   3.0460012e+04   3.0458326e+04   3.0456537e+04   3.0454734e+04   3.0453000e+04   3.0451406e+04   3.0450011e+04   3.0448864e+04   3.0448002e+04   3.0447451e+04   3.0447224e+04   3.0447328e+04   3.0447758e+04   3.0448503e+04   3.0449545e+04   3.0450858e+04   3.0452415e+04   3.0454180e+04   3.0456117e+04   3.0458186e+04   3.0460346e+04   3.0462552e+04   3.0464760e+04   3.0466922e+04   3.0468991e+04   3.0470920e+04   3.0472658e+04   3.0474157e+04   3.0475368e+04   3.0476241e+04   3.0476727e+04   3.0476781e+04   3.0476356e+04   3.0475410e+04   3.0473901e+04   3.0471796e+04   3.0469061e+04   3.0465672e+04   3.0461609e+04   3.0456858e+04   3.0451414e+04   3.0445281e+04   3.0438468e+04   3.0430997e+04   3.0422894e+04   3.0414197e+04   3.0404949e+04   3.0395203e+04   3.0385016e+04   3.0374451e+04   3.0363578e+04   3.0352465e+04   3.0341187e+04   3.0329815e+04   3.0318422e+04   3.0307076e+04   3.0295843e+04   3.0284784e+04   3.0273953e+04   3.0263400e+04   3.0253164e+04   3.0243281e+04   3.0233777e+04   3.0224670e+04   3.0215971e+04   3.0207686e+04   3.0199812e+04   3.0192344e+04   3.0185268e+04   3.0178568e+04   3.0172226e+04   3.0166220e+04   3.0160526e+04   3.0155120e+04   3.0149978e+04   3.0145075e+04   3.0140389e+04   3.0135897e+04   3.0131578e+04   3.0127414e+04   3.0123388e+04   3.0119483e+04   3.0115688e+04   3.0111990e+04   3.0108380e+04   3.0104850e+04   3.0101393e+04   3.0098005e+04   3.0094681e+04   3.0091418e+04   3.0088215e+04   3.0085071e+04   3.0081984e+04   3.0078955e+04   3.0075985e+04   3.0073073e+04   3.0070221e+04
3.0151851e+04   3.0165818e+04   3.0180419e+04   3.0195589e+04   3.0211250e+04   3.0227309e+04   3.0243666e+04   3.0260208e+04   3.0276816e+04   3.0293362e+04   3.0309717e+04   3.0325750e+04   3.0341332e+04   3.0356338e+04   3.0370649e+04   3.0384159e+04   3.0396771e+04   3.0408406e+04   3.0419000e+04   3.0428506e+04   3.0436898e+04   3.0444168e+04   3.0450327e+04   3.0455406e+04   3.0459451e+04   3.0462526e+04   3.0464706e+04   3.0466079e+04   3.0466740e+04   3.0466792e+04   3.0466338e+04   3.0465483e+04   3.0464329e+04   3.0462974e+04   3.0461510e+04   3.0460018e+04   3.0458572e+04   3.0457235e+04   3.0456058e+04   3.0455083e+04   3.0454340e+04   3.0453849e+04   3.0453621e+04   3.0453658e+04   3.0453954e+04   3.0454498e+04   3.0455272e+04   3.0456256e+04   3.0457424e+04   3.0458748e+04   3.0460200e+04   3.0461747e+04   3.0463357e+04   3.0464996e+04   3.0466630e+04   3.0468222e+04   3.0469735e+04   3.0471132e+04   3.0472373e+04   3.0473417e+04   3.0474221e+04   3.0474742e+04   3.0474936e+04   3.0474758e+04   3.0474162e+04   3.0473105e+04   3.0471542e+04   3.0469433e+04   3.0466740e+04   3.0463430e+04   3.0459473e+04   3.0454849e+04   3.0449542e+04   3.0443544e+04   3.0436858e+04   3.0429495e+04   3.0421473e+04   3.0412824e+04   3.0403585e+04   3.0393804e+04   3.0383536e+04   3.0372843e+04   3.0361794e+04   3.0350460e+04   3.0338918e+04   3.0327243e+04   3.0315512e+04   3.0303799e+04   3.0292178e+04   3.0280714e+04   3.0269468e+04   3.0258496e+04   3.0247846e+04   3.0237555e+04   3.0227657e+04   3.0218174e+04   3.0209122e+04   3.0200509e+04   3.0192335e+04   3.0184596e+04   3.0177281e+04   3.0170373e+04   3.0163855e+04   3.0157703e+04   3.0151895e+04   3.0146404e+04   3.0141205e+04   3.0136272e+04   3.0131581e+04   3.0127107e+04   3.0122829e+04   3.0118724e+04   3.0114776e+04   3.0110965e+04   3.0107279e+04   3.0103704e+04   3.0100228e+04   3.0096843e+04   3.0093541e+04   3.0090316e+04   3.0087162e+04   3.0084075e+04   3.0081054e+04   3.0078096e+04   3.0075200e+04   3.0072364e+04   3.0069589e+04   3.0066874e+04   3.0064220e+04
3.0154730e+04   3.0168824e+04   3.0183535e+04   3.0198795e+04   3.0214523e+04   3.0230627e+04   3.0247003e+04   3.0263539e+04   3.0280115e+04   3.0296607e+04   3.0312886e+04   3.0328824e+04   3.0344295e+04   3.0359179e+04   3.0373363e+04   3.0386744e+04   3.0399233e+04   3.0410755e+04   3.0421252e+04   3.0430685e+04   3.0439031e+04   3.0446286e+04   3.0452467e+04   3.0457606e+04   3.0461753e+04   3.0464969e+04   3.0467332e+04   3.0468926e+04   3.0469845e+04   3.0470185e+04   3.0470046e+04   3.0469525e+04   3.0468718e+04   3.0467715e+04   3.0466599e+04   3.0465442e+04   3.0464311e+04   3.0463258e+04   3.0462328e+04   3.0461553e+04   3.0460958e+04   3.0460557e+04   3.0460355e+04   3.0460351e+04   3.0460537e+04   3.0460902e+04   3.0461429e+04   3.0462100e+04   3.0462894e+04   3.0463788e+04   3.0464760e+04   3.0465786e+04   3.0466844e+04   3.0467910e+04   3.0468958e+04   3.0469964e+04   3.0470902e+04   3.0471743e+04   3.0472458e+04   3.0473013e+04   3.0473375e+04   3.0473505e+04   3.0473363e+04   3.0472908e+04   3.0472095e+04   3.0470877e+04   3.0469211e+04   3.0467049e+04   3.0464349e+04   3.0461071e+04   3.0457177e+04   3.0452636e+04   3.0447426e+04   3.0441530e+04   3.0434940e+04   3.0427659e+04   3.0419699e+04   3.0411083e+04   3.0401845e+04   3.0392027e+04   3.0381682e+04   3.0370871e+04   3.0359661e+04   3.0348126e+04   3.0336344e+04   3.0324395e+04   3.0312359e+04   3.0300317e+04   3.0288345e+04   3.0276516e+04   3.0264898e+04   3.0253550e+04   3.0242526e+04   3.0231871e+04   3.0221621e+04   3.0211803e+04   3.0202436e+04   3.0193532e+04   3.0185093e+04   3.0177115e+04   3.0169590e+04   3.0162503e+04   3.0155833e+04   3.0149560e+04   3.0143657e+04   3.0138100e+04   3.0132860e+04   3.0127911e+04   3.0123227e+04   3.0118781e+04   3.0114550e+04   3.0110511e+04   3.0106645e+04   3.0102932e+04   3.0099356e+04   3.0095903e+04   3.0092561e+04   3.0089319e+04   3.0086168e+04   3.0083101e+04   3.0080112e+04   3.0077196e+04   3.0074350e+04   3.0071571e+04   3.0068856e+04   3.0066205e+04   3.0063616e+04   3.0061088e+04   3.0058623e+04
3.0157609e+04   3.0171831e+04   3.0186652e+04   3.0202002e+04   3.0217798e+04   3.0233945e+04   3.0250340e+04   3.0266869e+04   3.0283412e+04   3.0299847e+04   3.0316047e+04   3.0331886e+04   3.0347243e+04   3.0362001e+04   3.0376053e+04   3.0389300e+04   3.0401661e+04   3.0413066e+04   3.0423463e+04   3.0432818e+04   3.0441114e+04   3.0448353e+04   3.0454554e+04   3.0459753e+04   3.0464002e+04   3.0467364e+04   3.0469915e+04   3.0471739e+04   3.0472925e+04   3.0473566e+04   3.0473757e+04   3.0473589e+04   3.0473149e+04   3.0472521e+04   3.0471777e+04   3.0470983e+04   3.0470194e+04   3.0469456e+04   3.0468803e+04   3.0468262e+04   3.0467846e+04   3.0467566e+04   3.0467420e+04   3.0467405e+04   3.0467509e+04   3.0467721e+04   3.0468023e+04   3.0468400e+04   3.0468835e+04   3.0469310e+04   3.0469810e+04   3.0470319e+04   3.0470822e+04   3.0471306e+04   3.0471756e+04   3.0472158e+04   3.0472495e+04   3.0472751e+04   3.0472904e+04   3.0472932e+04   3.0472806e+04   3.0472496e+04   3.0471966e+04   3.0471177e+04   3.0470087e+04   3.0468650e+04   3.0466817e+04   3.0464541e+04   3.0461772e+04   3.0458465e+04   3.0454576e+04   3.0450065e+04   3.0444902e+04   3.0439062e+04   3.0432529e+04   3.0425297e+04   3.0417373e+04   3.0408772e+04   3.0399523e+04   3.0389665e+04   3.0379246e+04   3.0368327e+04   3.0356975e+04   3.0345263e+04   3.0333273e+04   3.0321085e+04   3.0308786e+04   3.0296458e+04   3.0284184e+04   3.0272041e+04   3.0260101e+04   3.0248431e+04   3.0237087e+04   3.0226119e+04   3.0215568e+04   3.0205464e+04   3.0195831e+04   3.0186681e+04   3.0178019e+04   3.0169844e+04   3.0162146e+04   3.0154912e+04   3.0148123e+04   3.0141755e+04   3.0135783e+04   3.0130180e+04   3.0124919e+04   3.0119970e+04   3.0115306e+04   3.0110899e+04   3.0106725e+04   3.0102759e+04   3.0098980e+04   3.0095368e+04   3.0091905e+04   3.0088576e+04   3.0085366e+04   3.0082265e+04   3.0079262e+04   3.0076349e+04   3.0073520e+04   3.0070769e+04   3.0068091e+04   3.0065482e+04   3.0062942e+04   3.0060466e+04   3.0058054e+04   3.0055704e+04   3.0053416e+04
3.0160456e+04   3.0174803e+04   3.0189733e+04   3.0205172e+04   3.0221033e+04   3.0237221e+04   3.0253632e+04   3.0270150e+04   3.0286658e+04   3.0303032e+04   3.0319149e+04   3.0334886e+04   3.0350124e+04   3.0364751e+04   3.0378666e+04   3.0391775e+04   3.0404003e+04   3.0415285e+04   3.0425578e+04   3.0434851e+04   3.0443094e+04   3.0450315e+04   3.0456536e+04   3.0461796e+04   3.0466150e+04   3.0469662e+04   3.0472408e+04   3.0474469e+04   3.0475934e+04   3.0476890e+04   3.0477427e+04   3.0477630e+04   3.0477579e+04   3.0477348e+04   3.0477004e+04   3.0476600e+04   3.0476184e+04   3.0475792e+04   3.0475449e+04   3.0475173e+04   3.0474970e+04   3.0474844e+04   3.0474787e+04   3.0474791e+04   3.0474843e+04   3.0474927e+04   3.0475029e+04   3.0475132e+04   3.0475224e+04   3.0475292e+04   3.0475327e+04   3.0475319e+04   3.0475264e+04   3.0475157e+04   3.0474993e+04   3.0474768e+04   3.0474478e+04   3.0474114e+04   3.0473665e+04   3.0473118e+04   3.0472453e+04   3.0471645e+04   3.0470665e+04   3.0469477e+04   3.0468041e+04   3.0466312e+04   3.0464241e+04   3.0461777e+04   3.0458867e+04   3.0455460e+04   3.0451508e+04   3.0446964e+04   3.0441789e+04   3.0435952e+04   3.0429429e+04   3.0422209e+04   3.0414289e+04   3.0405682e+04   3.0396409e+04   3.0386506e+04   3.0376020e+04   3.0365007e+04   3.0353534e+04   3.0341676e+04   3.0329514e+04   3.0317132e+04   3.0304618e+04   3.0292059e+04   3.0279539e+04   3.0267142e+04   3.0254943e+04   3.0243012e+04   3.0231411e+04   3.0220193e+04   3.0209402e+04   3.0199072e+04   3.0189228e+04   3.0179885e+04   3.0171051e+04   3.0162724e+04   3.0154898e+04   3.0147557e+04   3.0140682e+04   3.0134252e+04   3.0128240e+04   3.0122617e+04   3.0117355e+04   3.0112425e+04   3.0107797e+04   3.0103443e+04   3.0099336e+04   3.0095452e+04   3.0091767e+04   3.0088259e+04   3.0084911e+04   3.0081706e+04   3.0078629e+04   3.0075666e+04   3.0072809e+04   3.0070046e+04   3.0067372e+04   3.0064779e+04   3.0062262e+04   3.0059818e+04   3.0057443e+04   3.0055134e+04   3.0052889e+04   3.0050708e+04   3.0048588e+04
3.0163234e+04   3.0177704e+04   3.0192738e+04   3.0208260e+04   3.0224182e+04   3.0240407e+04   3.0256828e+04   3.0273332e+04   3.0289799e+04   3.0306107e+04   3.0322136e+04   3.0337765e+04   3.0352879e+04   3.0367370e+04   3.0381142e+04   3.0394109e+04   3.0406198e+04   3.0417354e+04   3.0427538e+04   3.0436726e+04   3.0444914e+04   3.0452114e+04   3.0458355e+04   3.0463677e+04   3.0468139e+04   3.0471805e+04   3.0474752e+04   3.0477060e+04   3.0478814e+04   3.0480099e+04   3.0480998e+04   3.0481590e+04   3.0481949e+04   3.0482140e+04   3.0482220e+04   3.0482235e+04   3.0482221e+04   3.0482206e+04   3.0482205e+04   3.0482227e+04   3.0482271e+04   3.0482331e+04   3.0482396e+04   3.0482450e+04   3.0482478e+04   3.0482462e+04   3.0482386e+04   3.0482236e+04   3.0482001e+04   3.0481673e+04   3.0481248e+04   3.0480725e+04   3.0480106e+04   3.0479396e+04   3.0478600e+04   3.0477724e+04   3.0476774e+04   3.0475751e+04   3.0474656e+04   3.0473482e+04   3.0472220e+04   3.0470851e+04   3.0469352e+04   3.0467692e+04   3.0465833e+04   3.0463733e+04   3.0461342e+04   3.0458609e+04   3.0455478e+04   3.0451894e+04   3.0447803e+04   3.0443155e+04   3.0437903e+04   3.0432011e+04   3.0425449e+04   3.0418198e+04   3.0410252e+04   3.0401615e+04   3.0392306e+04   3.0382356e+04   3.0371809e+04   3.0360720e+04   3.0349154e+04   3.0337186e+04   3.0324896e+04   3.0312370e+04   3.0299698e+04   3.0286969e+04   3.0274271e+04   3.0261689e+04   3.0249301e+04   3.0237182e+04   3.0225396e+04   3.0213999e+04   3.0203037e+04   3.0192547e+04   3.0182555e+04   3.0173081e+04   3.0164130e+04   3.0155705e+04   3.0147797e+04   3.0140393e+04   3.0133475e+04   3.0127018e+04   3.0120996e+04   3.0115381e+04   3.0110143e+04   3.0105252e+04   3.0100678e+04   3.0096391e+04   3.0092363e+04   3.0088569e+04   3.0084984e+04   3.0081587e+04   3.0078357e+04   3.0075277e+04   3.0072331e+04   3.0069506e+04   3.0066791e+04   3.0064175e+04   3.0061650e+04   3.0059210e+04   3.0056848e+04   3.0054560e+04   3.0052343e+04   3.0050192e+04   3.0048107e+04   3.0046084e+04   3.0044122e+04
3.0165907e+04   3.0180491e+04   3.0195623e+04   3.0211221e+04   3.0227198e+04   3.0243453e+04   3.0259878e+04   3.0276359e+04   3.0292778e+04   3.0309015e+04   3.0324948e+04   3.0340462e+04   3.0355446e+04   3.0369795e+04   3.0383419e+04   3.0396236e+04   3.0408182e+04   3.0419207e+04   3.0429277e+04   3.0438377e+04   3.0446507e+04   3.0453686e+04   3.0459945e+04   3.0465331e+04   3.0469902e+04   3.0473727e+04   3.0476881e+04   3.0479444e+04   3.0481497e+04   3.0483123e+04   3.0484399e+04   3.0485398e+04   3.0486186e+04   3.0486820e+04   3.0487349e+04   3.0487808e+04   3.0488225e+04   3.0488615e+04   3.0488987e+04   3.0489338e+04   3.0489660e+04   3.0489938e+04   3.0490155e+04   3.0490289e+04   3.0490320e+04   3.0490229e+04   3.0489998e+04   3.0489613e+04   3.0489066e+04   3.0488353e+04   3.0487473e+04   3.0486434e+04   3.0485245e+04   3.0483919e+04   3.0482471e+04   3.0480917e+04   3.0479273e+04   3.0477551e+04   3.0475761e+04   3.0473906e+04   3.0471985e+04   3.0469987e+04   3.0467896e+04   3.0465687e+04   3.0463325e+04   3.0460770e+04   3.0457974e+04   3.0454886e+04   3.0451449e+04   3.0447605e+04   3.0443297e+04   3.0438471e+04   3.0433076e+04   3.0427069e+04   3.0420415e+04   3.0413092e+04   3.0405085e+04   3.0396398e+04   3.0387042e+04   3.0377046e+04   3.0366450e+04   3.0355306e+04   3.0343679e+04   3.0331641e+04   3.0319273e+04   3.0306662e+04   3.0293896e+04   3.0281066e+04   3.0268263e+04   3.0255572e+04   3.0243075e+04   3.0230847e+04   3.0218954e+04   3.0207455e+04   3.0196398e+04   3.0185821e+04   3.0175753e+04   3.0166212e+04   3.0157207e+04   3.0148740e+04   3.0140804e+04   3.0133385e+04   3.0126465e+04   3.0120020e+04   3.0114023e+04   3.0108446e+04   3.0103258e+04   3.0098428e+04   3.0093926e+04   3.0089721e+04   3.0085785e+04   3.0082091e+04   3.0078614e+04   3.0075332e+04   3.0072223e+04   3.0069270e+04   3.0066456e+04   3.0063767e+04   3.0061191e+04   3.0058717e+04   3.0056337e+04   3.0054044e+04   3.0051831e+04   3.0049692e+04   3.0047625e+04   3.0045624e+04   3.0043689e+04   3.0041815e+04   3.0040002e+04
3.0168434e+04   3.0183124e+04   3.0198343e+04   3.0214009e+04   3.0230029e+04   3.0246304e+04   3.0262724e+04   3.0279174e+04   3.0295537e+04   3.0311692e+04   3.0327522e+04   3.0342914e+04   3.0357759e+04   3.0371959e+04   3.0385427e+04   3.0398089e+04   3.0409886e+04   3.0420774e+04   3.0430726e+04   3.0439734e+04   3.0447803e+04   3.0454957e+04   3.0461234e+04   3.0466683e+04   3.0471366e+04   3.0475352e+04   3.0478718e+04   3.0481541e+04   3.0483903e+04   3.0485879e+04   3.0487544e+04   3.0488965e+04   3.0490199e+04   3.0491295e+04   3.0492292e+04   3.0493218e+04   3.0494090e+04   3.0494912e+04   3.0495683e+04   3.0496392e+04   3.0497019e+04   3.0497544e+04   3.0497939e+04   3.0498180e+04   3.0498240e+04   3.0498096e+04   3.0497730e+04   3.0497128e+04   3.0496282e+04   3.0495192e+04   3.0493863e+04   3.0492307e+04   3.0490540e+04   3.0488585e+04   3.0486465e+04   3.0484206e+04   3.0481834e+04   3.0479371e+04   3.0476838e+04   3.0474247e+04   3.0471605e+04   3.0468911e+04   3.0466155e+04   3.0463318e+04   3.0460371e+04   3.0457277e+04   3.0453991e+04   3.0450461e+04   3.0446633e+04   3.0442447e+04   3.0437844e+04   3.0432766e+04   3.0427160e+04   3.0420979e+04   3.0414184e+04   3.0406747e+04   3.0398652e+04   3.0389894e+04   3.0380484e+04   3.0370445e+04   3.0359815e+04   3.0348643e+04   3.0336991e+04   3.0324930e+04   3.0312540e+04   3.0299905e+04   3.0287114e+04   3.0274260e+04   3.0261430e+04   3.0248713e+04   3.0236190e+04   3.0223937e+04   3.0212022e+04   3.0200504e+04   3.0189433e+04   3.0178846e+04   3.0168774e+04   3.0159237e+04   3.0150243e+04   3.0141794e+04   3.0133885e+04   3.0126501e+04   3.0119624e+04   3.0113231e+04   3.0107295e+04   3.0101787e+04   3.0096676e+04   3.0091930e+04   3.0087519e+04   3.0083413e+04   3.0079581e+04   3.0075998e+04   3.0072637e+04   3.0069474e+04   3.0066490e+04   3.0063665e+04   3.0060983e+04   3.0058428e+04   3.0055989e+04   3.0053654e+04   3.0051414e+04   3.0049262e+04   3.0047191e+04   3.0045195e+04   3.0043270e+04   3.0041412e+04   3.0039618e+04   3.0037885e+04   3.0036211e+04
3.0170776e+04   3.0185559e+04   3.0200852e+04   3.0216573e+04   3.0232625e+04   3.0248908e+04   3.0265311e+04   3.0281718e+04   3.0298013e+04   3.0314077e+04   3.0329794e+04   3.0345053e+04   3.0359751e+04   3.0373793e+04   3.0387098e+04   3.0399597e+04   3.0411238e+04   3.0421983e+04   3.0431812e+04   3.0440722e+04   3.0448726e+04   3.0455853e+04   3.0462145e+04   3.0467655e+04   3.0472449e+04   3.0476598e+04   3.0480177e+04   3.0483265e+04   3.0485939e+04   3.0488273e+04   3.0490336e+04   3.0492188e+04   3.0493879e+04   3.0495451e+04   3.0496934e+04   3.0498344e+04   3.0499688e+04   3.0500963e+04   3.0502155e+04   3.0503243e+04   3.0504200e+04   3.0504994e+04   3.0505592e+04   3.0505961e+04   3.0506071e+04   3.0505895e+04   3.0505412e+04   3.0504608e+04   3.0503476e+04   3.0502017e+04   3.0500242e+04   3.0498167e+04   3.0495816e+04   3.0493219e+04   3.0490409e+04   3.0487420e+04   3.0484289e+04   3.0481047e+04   3.0477725e+04   3.0474346e+04   3.0470925e+04   3.0467471e+04   3.0463981e+04   3.0460442e+04   3.0456832e+04   3.0453118e+04   3.0449259e+04   3.0445207e+04   3.0440907e+04   3.0436300e+04   3.0431326e+04   3.0425927e+04   3.0420048e+04   3.0413638e+04   3.0406655e+04   3.0399068e+04   3.0390857e+04   3.0382014e+04   3.0372546e+04   3.0362473e+04   3.0351828e+04   3.0340658e+04   3.0329022e+04   3.0316988e+04   3.0304633e+04   3.0292041e+04   3.0279300e+04   3.0266498e+04   3.0253725e+04   3.0241066e+04   3.0228605e+04   3.0216415e+04   3.0204564e+04   3.0193113e+04   3.0182109e+04   3.0171592e+04   3.0161593e+04   3.0152129e+04   3.0143212e+04   3.0134843e+04   3.0127016e+04   3.0119719e+04   3.0112932e+04   3.0106632e+04   3.0100792e+04   3.0095384e+04   3.0090377e+04   3.0085739e+04   3.0081439e+04   3.0077446e+04   3.0073732e+04   3.0070269e+04   3.0067031e+04   3.0063994e+04   3.0061138e+04   3.0058443e+04   3.0055892e+04   3.0053470e+04   3.0051165e+04   3.0048965e+04   3.0046861e+04   3.0044844e+04   3.0042909e+04   3.0041049e+04   3.0039259e+04   3.0037535e+04   3.0035874e+04   3.0034274e+04   3.0032731e+04
3.0172893e+04   3.0187753e+04   3.0203105e+04   3.0218865e+04   3.0234934e+04   3.0251210e+04   3.0267581e+04   3.0283931e+04   3.0300145e+04   3.0316104e+04   3.0331696e+04   3.0346812e+04   3.0361352e+04   3.0375226e+04   3.0388359e+04   3.0400687e+04   3.0412164e+04   3.0422758e+04   3.0432458e+04   3.0441265e+04   3.0449198e+04   3.0456293e+04   3.0462595e+04   3.0468163e+04   3.0473065e+04   3.0477374e+04   3.0481165e+04   3.0484517e+04   3.0487505e+04   3.0490199e+04   3.0492662e+04   3.0494949e+04   3.0497104e+04   3.0499160e+04   3.0501136e+04   3.0503040e+04   3.0504870e+04   3.0506610e+04   3.0508238e+04   3.0509721e+04   3.0511023e+04   3.0512104e+04   3.0512922e+04   3.0513438e+04   3.0513616e+04   3.0513424e+04   3.0512839e+04   3.0511845e+04   3.0510437e+04   3.0508617e+04   3.0506400e+04   3.0503808e+04   3.0500869e+04   3.0497621e+04   3.0494106e+04   3.0490368e+04   3.0486450e+04   3.0482397e+04   3.0478248e+04   3.0474035e+04   3.0469785e+04   3.0465514e+04   3.0461227e+04   3.0456921e+04   3.0452578e+04   3.0448173e+04   3.0443668e+04   3.0439019e+04   3.0434173e+04   3.0429074e+04   3.0423664e+04   3.0417882e+04   3.0411673e+04   3.0404985e+04   3.0397774e+04   3.0390007e+04   3.0381660e+04   3.0372722e+04   3.0363197e+04   3.0353101e+04   3.0342464e+04   3.0331330e+04   3.0319752e+04   3.0307798e+04   3.0295541e+04   3.0283060e+04   3.0270442e+04   3.0257773e+04   3.0245139e+04   3.0232626e+04   3.0220312e+04   3.0208273e+04   3.0196574e+04   3.0185273e+04   3.0174419e+04   3.0164051e+04   3.0154198e+04   3.0144879e+04   3.0136105e+04   3.0127876e+04   3.0120187e+04   3.0113026e+04   3.0106373e+04   3.0100207e+04   3.0094499e+04   3.0089222e+04   3.0084345e+04   3.0079837e+04   3.0075667e+04   3.0071804e+04   3.0068220e+04   3.0064886e+04   3.0061778e+04   3.0058872e+04   3.0056147e+04   3.0053583e+04   3.0051163e+04   3.0048873e+04   3.0046699e+04   3.0044630e+04   3.0042657e+04   3.0040771e+04   3.0038965e+04   3.0037234e+04   3.0035572e+04   3.0033975e+04   3.0032440e+04   3.0030963e+04   3.0029543e+04
3.0174744e+04   3.0189663e+04   3.0205056e+04   3.0220836e+04   3.0236904e+04   3.0253155e+04   3.0269477e+04   3.0285755e+04   3.0301872e+04   3.0317712e+04   3.0333164e+04   3.0348123e+04   3.0362493e+04   3.0376189e+04   3.0389139e+04   3.0401286e+04   3.0412589e+04   3.0423025e+04   3.0432587e+04   3.0441283e+04   3.0449138e+04   3.0456193e+04   3.0462500e+04   3.0468119e+04   3.0473123e+04   3.0477585e+04   3.0481583e+04   3.0485193e+04   3.0488490e+04   3.0491538e+04   3.0494399e+04   3.0497119e+04   3.0499736e+04   3.0502273e+04   3.0504744e+04   3.0507145e+04   3.0509463e+04   3.0511673e+04   3.0513742e+04   3.0515628e+04   3.0517285e+04   3.0518662e+04   3.0519712e+04   3.0520386e+04   3.0520643e+04   3.0520448e+04   3.0519773e+04   3.0518601e+04   3.0516927e+04   3.0514756e+04   3.0512103e+04   3.0508996e+04   3.0505469e+04   3.0501568e+04   3.0497339e+04   3.0492838e+04   3.0488117e+04   3.0483229e+04   3.0478224e+04   3.0473144e+04   3.0468024e+04   3.0462891e+04   3.0457759e+04   3.0452631e+04   3.0447499e+04   3.0442342e+04   3.0437130e+04   3.0431822e+04   3.0426370e+04   3.0420721e+04   3.0414817e+04   3.0408601e+04   3.0402016e+04   3.0395011e+04   3.0387542e+04   3.0379571e+04   3.0371074e+04   3.0362038e+04   3.0352462e+04   3.0342359e+04   3.0331757e+04   3.0320694e+04   3.0309221e+04   3.0297400e+04   3.0285300e+04   3.0272999e+04   3.0260578e+04   3.0248119e+04   3.0235707e+04   3.0223422e+04   3.0211341e+04   3.0199536e+04   3.0188072e+04   3.0177004e+04   3.0166379e+04   3.0156235e+04   3.0146601e+04   3.0137494e+04   3.0128925e+04   3.0120894e+04   3.0113397e+04   3.0106420e+04   3.0099944e+04   3.0093949e+04   3.0088407e+04   3.0083290e+04   3.0078568e+04   3.0074211e+04   3.0070188e+04   3.0066470e+04   3.0063026e+04   3.0059832e+04   3.0056861e+04   3.0054090e+04   3.0051497e+04   3.0049065e+04   3.0046776e+04   3.0044616e+04   3.0042570e+04   3.0040629e+04   3.0038782e+04   3.0037021e+04   3.0035339e+04   3.0033730e+04   3.0032189e+04   3.0030712e+04   3.0029295e+04   3.0027935e+04   3.0026629e+04
3.0176292e+04   3.0191248e+04   3.0206661e+04   3.0222440e+04   3.0238486e+04   3.0254692e+04   3.0270946e+04   3.0287132e+04   3.0303134e+04   3.0318838e+04   3.0334135e+04   3.0348923e+04   3.0363109e+04   3.0376612e+04   3.0389367e+04   3.0401322e+04   3.0412442e+04   3.0422709e+04   3.0432122e+04   3.0440698e+04   3.0448466e+04   3.0455472e+04   3.0461772e+04   3.0467433e+04   3.0472528e+04   3.0477133e+04   3.0481327e+04   3.0485184e+04   3.0488777e+04   3.0492170e+04   3.0495415e+04   3.0498557e+04   3.0501625e+04   3.0504635e+04   3.0507590e+04   3.0510480e+04   3.0513279e+04   3.0515955e+04   3.0518462e+04   3.0520749e+04   3.0522759e+04   3.0524436e+04   3.0525720e+04   3.0526558e+04   3.0526902e+04   3.0526711e+04   3.0525955e+04   3.0524616e+04   3.0522686e+04   3.0520173e+04   3.0517093e+04   3.0513479e+04   3.0509371e+04   3.0504818e+04   3.0499878e+04   3.0494611e+04   3.0489079e+04   3.0483346e+04   3.0477469e+04   3.0471502e+04   3.0465488e+04   3.0459464e+04   3.0453453e+04   3.0447467e+04   3.0441504e+04   3.0435553e+04   3.0429588e+04   3.0423576e+04   3.0417473e+04   3.0411229e+04   3.0404790e+04   3.0398101e+04   3.0391108e+04   3.0383758e+04   3.0376008e+04   3.0367820e+04   3.0359168e+04   3.0350036e+04   3.0340420e+04   3.0330332e+04   3.0319792e+04   3.0308838e+04   3.0297515e+04   3.0285880e+04   3.0273998e+04   3.0261942e+04   3.0249788e+04   3.0237614e+04   3.0225499e+04   3.0213521e+04   3.0201752e+04   3.0190262e+04   3.0179110e+04   3.0168351e+04   3.0158028e+04   3.0148179e+04   3.0138830e+04   3.0129997e+04   3.0121691e+04   3.0113912e+04   3.0106654e+04   3.0099905e+04   3.0093647e+04   3.0087857e+04   3.0082511e+04   3.0077581e+04   3.0073037e+04   3.0068851e+04   3.0064991e+04   3.0061429e+04   3.0058138e+04   3.0055090e+04   3.0052261e+04   3.0049628e+04   3.0047171e+04   3.0044871e+04   3.0042712e+04   3.0040679e+04   3.0038759e+04   3.0036941e+04   3.0035216e+04   3.0033575e+04   3.0032011e+04   3.0030518e+04   3.0029092e+04   3.0027727e+04   3.0026421e+04   3.0025169e+04   3.0023970e+04
3.0177501e+04   3.0192470e+04   3.0207877e+04   3.0223632e+04   3.0239633e+04   3.0255771e+04   3.0271934e+04   3.0288007e+04   3.0303875e+04   3.0319424e+04   3.0334548e+04   3.0349148e+04   3.0363134e+04   3.0376431e+04   3.0388978e+04   3.0400727e+04   3.0411651e+04   3.0421737e+04   3.0430991e+04   3.0439434e+04   3.0447103e+04   3.0454047e+04   3.0460328e+04   3.0466017e+04   3.0471187e+04   3.0475920e+04   3.0480291e+04   3.0484378e+04   3.0488249e+04   3.0491965e+04   3.0495576e+04   3.0499119e+04   3.0502617e+04   3.0506079e+04   3.0509499e+04   3.0512858e+04   3.0516122e+04   3.0519246e+04   3.0522176e+04   3.0524852e+04   3.0527207e+04   3.0529175e+04   3.0530690e+04   3.0531691e+04   3.0532122e+04   3.0531940e+04   3.0531110e+04   3.0529612e+04   3.0527437e+04   3.0524594e+04   3.0521101e+04   3.0516994e+04   3.0512317e+04   3.0507126e+04   3.0501485e+04   3.0495462e+04   3.0489127e+04   3.0482553e+04   3.0475805e+04   3.0468948e+04   3.0462034e+04   3.0455108e+04   3.0448204e+04   3.0441341e+04   3.0434528e+04   3.0427759e+04   3.0421016e+04   3.0414273e+04   3.0407491e+04   3.0400626e+04   3.0393628e+04   3.0386444e+04   3.0379022e+04   3.0371313e+04   3.0363273e+04   3.0354864e+04   3.0346059e+04   3.0336840e+04   3.0327202e+04   3.0317150e+04   3.0306706e+04   3.0295898e+04   3.0284769e+04   3.0273371e+04   3.0261763e+04   3.0250013e+04   3.0238190e+04   3.0226368e+04   3.0214621e+04   3.0203021e+04   3.0191637e+04   3.0180531e+04   3.0169762e+04   3.0159380e+04   3.0149426e+04   3.0139934e+04   3.0130929e+04   3.0122426e+04   3.0114435e+04   3.0106955e+04   3.0099980e+04   3.0093497e+04   3.0087491e+04   3.0081938e+04   3.0076815e+04   3.0072094e+04   3.0067748e+04   3.0063748e+04   3.0060065e+04   3.0056671e+04   3.0053539e+04   3.0050644e+04   3.0047962e+04   3.0045471e+04   3.0043150e+04   3.0040983e+04   3.0038952e+04   3.0037044e+04   3.0035246e+04   3.0033548e+04   3.0031939e+04   3.0030413e+04   3.0028961e+04   3.0027578e+04   3.0026260e+04   3.0025001e+04   3.0023798e+04   3.0022648e+04   3.0021548e+04
3.0178337e+04   3.0193291e+04   3.0208668e+04   3.0224372e+04   3.0240301e+04   3.0256346e+04   3.0272395e+04   3.0288332e+04   3.0304042e+04   3.0319416e+04   3.0334347e+04   3.0348740e+04   3.0362510e+04   3.0375585e+04   3.0387908e+04   3.0399438e+04   3.0410152e+04   3.0420043e+04   3.0429124e+04   3.0437420e+04   3.0444975e+04   3.0451842e+04   3.0458087e+04   3.0463784e+04   3.0469011e+04   3.0473848e+04   3.0478375e+04   3.0482666e+04   3.0486788e+04   3.0490800e+04   3.0494746e+04   3.0498659e+04   3.0502556e+04   3.0506438e+04   3.0510293e+04   3.0514090e+04   3.0517788e+04   3.0521333e+04   3.0524662e+04   3.0527703e+04   3.0530384e+04   3.0532627e+04   3.0534360e+04   3.0535514e+04   3.0536030e+04   3.0535857e+04   3.0534957e+04   3.0533308e+04   3.0530900e+04   3.0527741e+04   3.0523854e+04   3.0519274e+04   3.0514051e+04   3.0508246e+04   3.0501928e+04   3.0495173e+04   3.0488058e+04   3.0480663e+04   3.0473065e+04   3.0465334e+04   3.0457533e+04   3.0449717e+04   3.0441927e+04   3.0434192e+04   3.0426529e+04   3.0418940e+04   3.0411417e+04   3.0403937e+04   3.0396470e+04   3.0388976e+04   3.0381411e+04   3.0373727e+04   3.0365874e+04   3.0357805e+04   3.0349477e+04   3.0340853e+04   3.0331906e+04   3.0322617e+04   3.0312977e+04   3.0302990e+04   3.0292671e+04   3.0282047e+04   3.0271155e+04   3.0260041e+04   3.0248758e+04   3.0237368e+04   3.0225934e+04   3.0214524e+04   3.0203207e+04   3.0192047e+04   3.0181108e+04   3.0170449e+04   3.0160124e+04   3.0150177e+04   3.0140648e+04   3.0131566e+04   3.0122956e+04   3.0114830e+04   3.0107197e+04   3.0100055e+04   3.0093399e+04   3.0087217e+04   3.0081490e+04   3.0076200e+04   3.0071322e+04   3.0066830e+04   3.0062698e+04   3.0058898e+04   3.0055403e+04   3.0052186e+04   3.0049220e+04   3.0046483e+04   3.0043950e+04   3.0041602e+04   3.0039418e+04   3.0037382e+04   3.0035477e+04   3.0033692e+04   3.0032013e+04   3.0030429e+04   3.0028933e+04   3.0027516e+04   3.0026171e+04   3.0024892e+04   3.0023675e+04   3.0022516e+04   3.0021410e+04   3.0020355e+04   3.0019347e+04
3.0178770e+04   3.0193682e+04   3.0208997e+04   3.0224622e+04   3.0240451e+04   3.0256376e+04   3.0272284e+04   3.0288060e+04   3.0303590e+04   3.0318765e+04   3.0333482e+04   3.0347649e+04   3.0361184e+04   3.0374019e+04   3.0386101e+04   3.0397396e+04   3.0407885e+04   3.0417566e+04   3.0426458e+04   3.0434591e+04   3.0442014e+04   3.0448784e+04   3.0454973e+04   3.0460656e+04   3.0465914e+04   3.0470830e+04   3.0475482e+04   3.0479944e+04   3.0484283e+04   3.0488553e+04   3.0492795e+04   3.0497038e+04   3.0501292e+04   3.0505552e+04   3.0509797e+04   3.0513990e+04   3.0518082e+04   3.0522009e+04   3.0525699e+04   3.0529073e+04   3.0532048e+04   3.0534542e+04   3.0536472e+04   3.0537766e+04   3.0538355e+04   3.0538187e+04   3.0537220e+04   3.0535428e+04   3.0532801e+04   3.0529347e+04   3.0525088e+04   3.0520065e+04   3.0514328e+04   3.0507944e+04   3.0500986e+04   3.0493537e+04   3.0485682e+04   3.0477507e+04   3.0469096e+04   3.0460529e+04   3.0451877e+04   3.0443204e+04   3.0434558e+04   3.0425979e+04   3.0417491e+04   3.0409105e+04   3.0400819e+04   3.0392619e+04   3.0384482e+04   3.0376373e+04   3.0368254e+04   3.0360081e+04   3.0351808e+04   3.0343392e+04   3.0334792e+04   3.0325971e+04   3.0316901e+04   3.0307564e+04   3.0297947e+04   3.0288054e+04   3.0277894e+04   3.0267490e+04   3.0256874e+04   3.0246085e+04   3.0235172e+04   3.0224189e+04   3.0213193e+04   3.0202246e+04   3.0191408e+04   3.0180739e+04   3.0170298e+04   3.0160136e+04   3.0150302e+04   3.0140838e+04   3.0131779e+04   3.0123152e+04   3.0114976e+04   3.0107265e+04   3.0100025e+04   3.0093254e+04   3.0086946e+04   3.0081089e+04   3.0075666e+04   3.0070658e+04   3.0066042e+04   3.0061794e+04   3.0057888e+04   3.0054298e+04   3.0050999e+04   3.0047964e+04   3.0045170e+04   3.0042593e+04   3.0040211e+04   3.0038006e+04   3.0035958e+04   3.0034051e+04   3.0032271e+04   3.0030605e+04   3.0029040e+04   3.0027568e+04   3.0026179e+04   3.0024865e+04   3.0023621e+04   3.0022441e+04   3.0021320e+04   3.0020254e+04   3.0019238e+04   3.0018271e+04   3.0017350e+04
3.0178774e+04   3.0193612e+04   3.0208836e+04   3.0224351e+04   3.0240051e+04   3.0255827e+04   3.0271565e+04   3.0287153e+04   3.0302477e+04   3.0317429e+04   3.0331911e+04   3.0345830e+04   3.0359110e+04   3.0371686e+04   3.0383511e+04   3.0394553e+04   3.0404799e+04   3.0414254e+04   3.0422939e+04   3.0430891e+04   3.0438161e+04   3.0444813e+04   3.0450921e+04   3.0456563e+04   3.0461823e+04   3.0466784e+04   3.0471525e+04   3.0476120e+04   3.0480632e+04   3.0485115e+04   3.0489606e+04   3.0494128e+04   3.0498686e+04   3.0503270e+04   3.0507853e+04   3.0512389e+04   3.0516821e+04   3.0521079e+04   3.0525083e+04   3.0528746e+04   3.0531977e+04   3.0534687e+04   3.0536787e+04   3.0538198e+04   3.0538848e+04   3.0538678e+04   3.0537643e+04   3.0535717e+04   3.0532887e+04   3.0529160e+04   3.0524561e+04   3.0519129e+04   3.0512921e+04   3.0506004e+04   3.0498459e+04   3.0490371e+04   3.0481832e+04   3.0472934e+04   3.0463770e+04   3.0454426e+04   3.0444981e+04   3.0435505e+04   3.0426059e+04   3.0416686e+04   3.0407421e+04   3.0398282e+04   3.0389276e+04   3.0380395e+04   3.0371623e+04   3.0362933e+04   3.0354291e+04   3.0345658e+04   3.0336995e+04   3.0328259e+04   3.0319413e+04   3.0310421e+04   3.0301257e+04   3.0291899e+04   3.0282336e+04   3.0272566e+04   3.0262597e+04   3.0252446e+04   3.0242140e+04   3.0231714e+04   3.0221208e+04   3.0210670e+04   3.0200152e+04   3.0189707e+04   3.0179389e+04   3.0169251e+04   3.0159346e+04   3.0149719e+04   3.0140415e+04   3.0131469e+04   3.0122914e+04   3.0114772e+04   3.0107061e+04   3.0099793e+04   3.0092971e+04   3.0086594e+04   3.0080655e+04   3.0075141e+04   3.0070038e+04   3.0065327e+04   3.0060985e+04   3.0056991e+04   3.0053320e+04   3.0049947e+04   3.0046848e+04   3.0044000e+04   3.0041378e+04   3.0038963e+04   3.0036733e+04   3.0034669e+04   3.0032756e+04   3.0030976e+04   3.0029317e+04   3.0027765e+04   3.0026312e+04   3.0024945e+04   3.0023659e+04   3.0022444e+04   3.0021296e+04   3.0020208e+04   3.0019177e+04   3.0018197e+04   3.0017267e+04   3.0016382e+04   3.0015540e+04
3.0178329e+04   3.0193061e+04   3.0208161e+04   3.0223533e+04   3.0239072e+04   3.0254668e+04   3.0270209e+04   3.0285580e+04   3.0300671e+04   3.0315376e+04   3.0329598e+04   3.0343248e+04   3.0356252e+04   3.0368550e+04   3.0380098e+04   3.0390869e+04   3.0400855e+04   3.0410065e+04   3.0418523e+04   3.0426273e+04   3.0433369e+04   3.0439879e+04   3.0445878e+04   3.0451450e+04   3.0456677e+04   3.0461645e+04   3.0466434e+04   3.0471115e+04   3.0475752e+04   3.0480395e+04   3.0485077e+04   3.0489819e+04   3.0494621e+04   3.0499466e+04   3.0504321e+04   3.0509137e+04   3.0513847e+04   3.0518376e+04   3.0522636e+04   3.0526534e+04   3.0529974e+04   3.0532858e+04   3.0535093e+04   3.0536594e+04   3.0537286e+04   3.0537104e+04   3.0536003e+04   3.0533951e+04   3.0530936e+04   3.0526964e+04   3.0522060e+04   3.0516265e+04   3.0509637e+04   3.0502246e+04   3.0494177e+04   3.0485519e+04   3.0476369e+04   3.0466826e+04   3.0456986e+04   3.0446943e+04   3.0436783e+04   3.0426583e+04   3.0416411e+04   3.0406319e+04   3.0396347e+04   3.0386523e+04   3.0376859e+04   3.0367358e+04   3.0358007e+04   3.0348788e+04   3.0339672e+04   3.0330626e+04   3.0321614e+04   3.0312599e+04   3.0303545e+04   3.0294418e+04   3.0285193e+04   3.0275848e+04   3.0266370e+04   3.0256756e+04   3.0247008e+04   3.0237142e+04   3.0227176e+04   3.0217142e+04   3.0207073e+04   3.0197011e+04   3.0186999e+04   3.0177085e+04   3.0167315e+04   3.0157736e+04   3.0148394e+04   3.0139329e+04   3.0130578e+04   3.0122175e+04   3.0114145e+04   3.0106510e+04   3.0099284e+04   3.0092476e+04   3.0086088e+04   3.0080119e+04   3.0074562e+04   3.0069403e+04   3.0064630e+04   3.0060223e+04   3.0056163e+04   3.0052428e+04   3.0048995e+04   3.0045842e+04   3.0042946e+04   3.0040285e+04   3.0037837e+04   3.0035582e+04   3.0033502e+04   3.0031579e+04   3.0029796e+04   3.0028140e+04   3.0026598e+04   3.0025158e+04   3.0023810e+04   3.0022546e+04   3.0021356e+04   3.0020235e+04   3.0019177e+04   3.0018177e+04   3.0017229e+04   3.0016331e+04   3.0015479e+04   3.0014670e+04   3.0013902e+04
3.0177419e+04   3.0192010e+04   3.0206953e+04   3.0222149e+04   3.0237495e+04   3.0252880e+04   3.0268191e+04   3.0283317e+04   3.0298148e+04   3.0312580e+04   3.0326517e+04   3.0339875e+04   3.0352583e+04   3.0364582e+04   3.0375834e+04   3.0386316e+04   3.0396023e+04   3.0404968e+04   3.0413180e+04   3.0420706e+04   3.0427604e+04   3.0433944e+04   3.0439806e+04   3.0445272e+04   3.0450430e+04   3.0455364e+04   3.0460154e+04   3.0464872e+04   3.0469578e+04   3.0474321e+04   3.0479132e+04   3.0484027e+04   3.0489003e+04   3.0494038e+04   3.0499094e+04   3.0504116e+04   3.0509034e+04   3.0513764e+04   3.0518216e+04   3.0522288e+04   3.0525881e+04   3.0528891e+04   3.0531221e+04   3.0532781e+04   3.0533492e+04   3.0533287e+04   3.0532117e+04   3.0529950e+04   3.0526770e+04   3.0522584e+04   3.0517417e+04   3.0511310e+04   3.0504323e+04   3.0496528e+04   3.0488011e+04   3.0478866e+04   3.0469193e+04   3.0459096e+04   3.0448675e+04   3.0438030e+04   3.0427252e+04   3.0416425e+04   3.0405623e+04   3.0394904e+04   3.0384316e+04   3.0373894e+04   3.0363657e+04   3.0353613e+04   3.0343759e+04   3.0334080e+04   3.0324555e+04   3.0315156e+04   3.0305852e+04   3.0296609e+04   3.0287393e+04   3.0278176e+04   3.0268930e+04   3.0259635e+04   3.0250277e+04   3.0240849e+04   3.0231353e+04   3.0221797e+04   3.0212198e+04   3.0202579e+04   3.0192969e+04   3.0183403e+04   3.0173918e+04   3.0164552e+04   3.0155348e+04   3.0146344e+04   3.0137579e+04   3.0129089e+04   3.0120906e+04   3.0113056e+04   3.0105564e+04   3.0098445e+04   3.0091712e+04   3.0085373e+04   3.0079427e+04   3.0073872e+04   3.0068701e+04   3.0063903e+04   3.0059462e+04   3.0055363e+04   3.0051585e+04   3.0048111e+04   3.0044917e+04   3.0041984e+04   3.0039290e+04   3.0036814e+04   3.0034537e+04   3.0032441e+04   3.0030507e+04   3.0028721e+04   3.0027066e+04   3.0025530e+04   3.0024101e+04   3.0022768e+04   3.0021521e+04   3.0020353e+04   3.0019256e+04   3.0018223e+04   3.0017250e+04   3.0016331e+04   3.0015462e+04   3.0014640e+04   3.0013861e+04   3.0013123e+04   3.0012423e+04
3.0176034e+04   3.0190450e+04   3.0205201e+04   3.0220188e+04   3.0235306e+04   3.0250447e+04   3.0265499e+04   3.0280350e+04   3.0294893e+04   3.0309025e+04   3.0322654e+04   3.0335697e+04   3.0348086e+04   3.0359767e+04   3.0370703e+04   3.0380877e+04   3.0390285e+04   3.0398945e+04   3.0406891e+04   3.0414170e+04   3.0420845e+04   3.0426989e+04   3.0432681e+04   3.0438008e+04   3.0443057e+04   3.0447912e+04   3.0452654e+04   3.0457354e+04   3.0462070e+04   3.0466850e+04   3.0471721e+04   3.0476697e+04   3.0481771e+04   3.0486919e+04   3.0492098e+04   3.0497248e+04   3.0502295e+04   3.0507152e+04   3.0511723e+04   3.0515903e+04   3.0519588e+04   3.0522671e+04   3.0525051e+04   3.0526636e+04   3.0527342e+04   3.0527101e+04   3.0525861e+04   3.0523587e+04   3.0520266e+04   3.0515901e+04   3.0510517e+04   3.0504155e+04   3.0496877e+04   3.0488755e+04   3.0479877e+04   3.0470339e+04   3.0460244e+04   3.0449697e+04   3.0438805e+04   3.0427669e+04   3.0416387e+04   3.0405046e+04   3.0393725e+04   3.0382491e+04   3.0371395e+04   3.0360478e+04   3.0349767e+04   3.0339276e+04   3.0329007e+04   3.0318953e+04   3.0309097e+04   3.0299418e+04   3.0289887e+04   3.0280477e+04   3.0271156e+04   3.0261898e+04   3.0252676e+04   3.0243471e+04   3.0234267e+04   3.0225057e+04   3.0215838e+04   3.0206617e+04   3.0197404e+04   3.0188218e+04   3.0179082e+04   3.0170024e+04   3.0161075e+04   3.0152267e+04   3.0143634e+04   3.0135210e+04   3.0127028e+04   3.0119116e+04   3.0111501e+04   3.0104207e+04   3.0097252e+04   3.0090650e+04   3.0084410e+04   3.0078538e+04   3.0073032e+04   3.0067890e+04   3.0063104e+04   3.0058663e+04   3.0054553e+04   3.0050758e+04   3.0047262e+04   3.0044044e+04   3.0041087e+04   3.0038370e+04   3.0035874e+04   3.0033580e+04   3.0031471e+04   3.0029529e+04   3.0027738e+04   3.0026083e+04   3.0024552e+04   3.0023131e+04   3.0021810e+04   3.0020579e+04   3.0019428e+04   3.0018352e+04   3.0017342e+04   3.0016392e+04   3.0015499e+04   3.0014656e+04   3.0013861e+04   3.0013109e+04   3.0012398e+04   3.0011725e+04   3.0011088e+04
3.0174169e+04   3.0188375e+04   3.0202899e+04   3.0217642e+04   3.0232501e+04   3.0247366e+04   3.0262126e+04   3.0276673e+04   3.0290900e+04   3.0304707e+04   3.0318003e+04   3.0330708e+04   3.0342757e+04   3.0354099e+04   3.0364701e+04   3.0374547e+04   3.0383638e+04   3.0391995e+04   3.0399653e+04   3.0406664e+04   3.0413091e+04   3.0419009e+04   3.0424501e+04   3.0429652e+04   3.0434551e+04   3.0439282e+04   3.0443926e+04   3.0448551e+04   3.0453216e+04   3.0457965e+04   3.0462826e+04   3.0467809e+04   3.0472903e+04   3.0478083e+04   3.0483301e+04   3.0488497e+04   3.0493592e+04   3.0498496e+04   3.0503111e+04   3.0507329e+04   3.0511042e+04   3.0514142e+04   3.0516525e+04   3.0518097e+04   3.0518772e+04   3.0518481e+04   3.0517169e+04   3.0514802e+04   3.0511363e+04   3.0506856e+04   3.0501304e+04   3.0494751e+04   3.0487254e+04   3.0478890e+04   3.0469744e+04   3.0459916e+04   3.0449507e+04   3.0438627e+04   3.0427382e+04   3.0415879e+04   3.0404217e+04   3.0392488e+04   3.0380775e+04   3.0369147e+04   3.0357663e+04   3.0346369e+04   3.0335296e+04   3.0324464e+04   3.0313882e+04   3.0303547e+04   3.0293450e+04   3.0283571e+04   3.0273890e+04   3.0264380e+04   3.0255015e+04   3.0245769e+04   3.0236619e+04   3.0227545e+04   3.0218531e+04   3.0209568e+04   3.0200652e+04   3.0191784e+04   3.0182973e+04   3.0174231e+04   3.0165576e+04   3.0157030e+04   3.0148619e+04   3.0140367e+04   3.0132303e+04   3.0124455e+04   3.0116848e+04   3.0109507e+04   3.0102454e+04   3.0095707e+04   3.0089281e+04   3.0083186e+04   3.0077431e+04   3.0072017e+04   3.0066943e+04   3.0062206e+04   3.0057797e+04   3.0053705e+04   3.0049918e+04   3.0046421e+04   3.0043198e+04   3.0040231e+04   3.0037504e+04   3.0034997e+04   3.0032693e+04   3.0030576e+04   3.0028629e+04   3.0026835e+04   3.0025182e+04   3.0023654e+04   3.0022241e+04   3.0020930e+04   3.0019712e+04   3.0018577e+04   3.0017518e+04   3.0016528e+04   3.0015600e+04   3.0014729e+04   3.0013909e+04   3.0013138e+04   3.0012411e+04   3.0011725e+04   3.0011077e+04   3.0010465e+04   3.0009886e+04
3.0171826e+04   3.0185788e+04   3.0200050e+04   3.0214516e+04   3.0229081e+04   3.0243638e+04   3.0258077e+04   3.0272291e+04   3.0286174e+04   3.0299630e+04   3.0312569e+04   3.0324914e+04   3.0336603e+04   3.0347587e+04   3.0357836e+04   3.0367337e+04   3.0376093e+04   3.0384128e+04   3.0391479e+04   3.0398199e+04   3.0404354e+04   3.0410020e+04   3.0415279e+04   3.0420220e+04   3.0424929e+04   3.0429491e+04   3.0433985e+04   3.0438480e+04   3.0443033e+04   3.0447685e+04   3.0452464e+04   3.0457377e+04   3.0462413e+04   3.0467542e+04   3.0472718e+04   3.0477875e+04   3.0482935e+04   3.0487807e+04   3.0492388e+04   3.0496572e+04   3.0500249e+04   3.0503309e+04   3.0505648e+04   3.0507169e+04   3.0507787e+04   3.0507431e+04   3.0506047e+04   3.0503598e+04   3.0500067e+04   3.0495457e+04   3.0489791e+04   3.0483109e+04   3.0475472e+04   3.0466952e+04   3.0457638e+04   3.0447625e+04   3.0437018e+04   3.0425926e+04   3.0414456e+04   3.0402715e+04   3.0390806e+04   3.0378822e+04   3.0366848e+04   3.0354959e+04   3.0343216e+04   3.0331669e+04   3.0320355e+04   3.0309298e+04   3.0298511e+04   3.0287998e+04   3.0277753e+04   3.0267763e+04   3.0258010e+04   3.0248473e+04   3.0239128e+04   3.0229952e+04   3.0220923e+04   3.0212021e+04   3.0203232e+04   3.0194544e+04   3.0185951e+04   3.0177453e+04   3.0169053e+04   3.0160761e+04   3.0152588e+04   3.0144553e+04   3.0136672e+04   3.0128968e+04   3.0121463e+04   3.0114177e+04   3.0107132e+04   3.0100346e+04   3.0093838e+04   3.0087622e+04   3.0081708e+04   3.0076105e+04   3.0070818e+04   3.0065847e+04   3.0061190e+04   3.0056843e+04   3.0052798e+04   3.0049044e+04   3.0045568e+04   3.0042358e+04   3.0039398e+04   3.0036673e+04   3.0034166e+04   3.0031861e+04   3.0029742e+04   3.0027794e+04   3.0026002e+04   3.0024351e+04   3.0022828e+04   3.0021422e+04   3.0020121e+04   3.0018914e+04   3.0017794e+04   3.0016751e+04   3.0015778e+04   3.0014868e+04   3.0014017e+04   3.0013219e+04   3.0012470e+04   3.0011765e+04   3.0011101e+04   3.0010475e+04   3.0009886e+04   3.0009329e+04   3.0008804e+04
3.0169013e+04   3.0182696e+04   3.0196664e+04   3.0210818e+04   3.0225057e+04   3.0239275e+04   3.0253363e+04   3.0267215e+04   3.0280729e+04   3.0293809e+04   3.0306368e+04   3.0318333e+04   3.0329642e+04   3.0340250e+04   3.0350129e+04   3.0359268e+04   3.0367673e+04   3.0375369e+04   3.0382394e+04   3.0388804e+04   3.0394665e+04   3.0400053e+04   3.0405052e+04   3.0409749e+04   3.0414230e+04   3.0418580e+04   3.0422876e+04   3.0427186e+04   3.0431567e+04   3.0436059e+04   3.0440686e+04   3.0445456e+04   3.0450356e+04   3.0455355e+04   3.0460407e+04   3.0465444e+04   3.0470389e+04   3.0475148e+04   3.0479622e+04   3.0483702e+04   3.0487278e+04   3.0490242e+04   3.0492490e+04   3.0493924e+04   3.0494460e+04   3.0494027e+04   3.0492569e+04   3.0490051e+04   3.0486454e+04   3.0481780e+04   3.0476052e+04   3.0469309e+04   3.0461608e+04   3.0453023e+04   3.0443638e+04   3.0433550e+04   3.0422862e+04   3.0411680e+04   3.0400113e+04   3.0388268e+04   3.0376247e+04   3.0364144e+04   3.0352047e+04   3.0340031e+04   3.0328161e+04   3.0316490e+04   3.0305058e+04   3.0293894e+04   3.0283015e+04   3.0272430e+04   3.0262135e+04   3.0252124e+04   3.0242382e+04   3.0232891e+04   3.0223631e+04   3.0214581e+04   3.0205721e+04   3.0197033e+04   3.0188501e+04   3.0180114e+04   3.0171863e+04   3.0163747e+04   3.0155764e+04   3.0147922e+04   3.0140227e+04   3.0132693e+04   3.0125332e+04   3.0118160e+04   3.0111195e+04   3.0104451e+04   3.0097947e+04   3.0091695e+04   3.0085709e+04   3.0080001e+04   3.0074577e+04   3.0069443e+04   3.0064602e+04   3.0060054e+04   3.0055795e+04   3.0051820e+04   3.0048121e+04   3.0044688e+04   3.0041509e+04   3.0038572e+04   3.0035862e+04   3.0033367e+04   3.0031070e+04   3.0028957e+04   3.0027014e+04   3.0025226e+04   3.0023581e+04   3.0022065e+04   3.0020666e+04   3.0019375e+04   3.0018179e+04   3.0017072e+04   3.0016043e+04   3.0015086e+04   3.0014193e+04   3.0013360e+04   3.0012581e+04   3.0011851e+04   3.0011166e+04   3.0010523e+04   3.0009918e+04   3.0009349e+04   3.0008813e+04   3.0008307e+04   3.0007831e+04
3.0165744e+04   3.0179116e+04   3.0192755e+04   3.0206566e+04   3.0220449e+04   3.0234297e+04   3.0248006e+04   3.0261470e+04   3.0274589e+04   3.0287270e+04   3.0299429e+04   3.0310993e+04   3.0321905e+04   3.0332121e+04   3.0341615e+04   3.0350377e+04   3.0358417e+04   3.0365759e+04   3.0372443e+04   3.0378525e+04   3.0384072e+04   3.0389160e+04   3.0393872e+04   3.0398295e+04   3.0402513e+04   3.0406611e+04   3.0410665e+04   3.0414742e+04   3.0418896e+04   3.0423166e+04   3.0427578e+04   3.0432135e+04   3.0436827e+04   3.0441622e+04   3.0446472e+04   3.0451313e+04   3.0456066e+04   3.0460639e+04   3.0464934e+04   3.0468843e+04   3.0472260e+04   3.0475075e+04   3.0477187e+04   3.0478501e+04   3.0478931e+04   3.0478408e+04   3.0476878e+04   3.0474304e+04   3.0470667e+04   3.0465969e+04   3.0460231e+04   3.0453490e+04   3.0445802e+04   3.0437238e+04   3.0427881e+04   3.0417824e+04   3.0407168e+04   3.0396019e+04   3.0384482e+04   3.0372662e+04   3.0360662e+04   3.0348575e+04   3.0336489e+04   3.0324480e+04   3.0312614e+04   3.0300947e+04   3.0289521e+04   3.0278368e+04   3.0267508e+04   3.0256954e+04   3.0246708e+04   3.0236765e+04   3.0227115e+04   3.0217743e+04   3.0208632e+04   3.0199764e+04   3.0191120e+04   3.0182684e+04   3.0174439e+04   3.0166375e+04   3.0158482e+04   3.0150755e+04   3.0143193e+04   3.0135796e+04   3.0128571e+04   3.0121524e+04   3.0114665e+04   3.0108006e+04   3.0101557e+04   3.0095332e+04   3.0089341e+04   3.0083596e+04   3.0078105e+04   3.0072877e+04   3.0067915e+04   3.0063225e+04   3.0058805e+04   3.0054655e+04   3.0050770e+04   3.0047145e+04   3.0043772e+04   3.0040641e+04   3.0037741e+04   3.0035061e+04   3.0032587e+04   3.0030308e+04   3.0028209e+04   3.0026276e+04   3.0024499e+04   3.0022862e+04   3.0021355e+04   3.0019966e+04   3.0018685e+04   3.0017501e+04   3.0016405e+04   3.0015390e+04   3.0014447e+04   3.0013570e+04   3.0012754e+04   3.0011992e+04   3.0011279e+04   3.0010613e+04   3.0009988e+04   3.0009402e+04   3.0008851e+04   3.0008334e+04   3.0007847e+04   3.0007389e+04   3.0006958e+04
3.0162038e+04   3.0175066e+04   3.0188347e+04   3.0201785e+04   3.0215281e+04   3.0228732e+04   3.0242034e+04   3.0255085e+04   3.0267786e+04   3.0280047e+04   3.0291786e+04   3.0302933e+04   3.0313432e+04   3.0323242e+04   3.0332338e+04   3.0340712e+04   3.0348374e+04   3.0355350e+04   3.0361680e+04   3.0367421e+04   3.0372638e+04   3.0377407e+04   3.0381810e+04   3.0385933e+04   3.0389859e+04   3.0393672e+04   3.0397444e+04   3.0401243e+04   3.0405121e+04   3.0409117e+04   3.0413255e+04   3.0417539e+04   3.0421957e+04   3.0426480e+04   3.0431060e+04   3.0435634e+04   3.0440126e+04   3.0444446e+04   3.0448498e+04   3.0452177e+04   3.0455379e+04   3.0457999e+04   3.0459936e+04   3.0461097e+04   3.0461402e+04   3.0460780e+04   3.0459179e+04   3.0456562e+04   3.0452911e+04   3.0448227e+04   3.0442528e+04   3.0435850e+04   3.0428248e+04   3.0419788e+04   3.0410551e+04   3.0400626e+04   3.0390112e+04   3.0379109e+04   3.0367722e+04   3.0356053e+04   3.0344200e+04   3.0332258e+04   3.0320311e+04   3.0308436e+04   3.0296701e+04   3.0285159e+04   3.0273857e+04   3.0262828e+04   3.0252095e+04   3.0241674e+04   3.0231569e+04   3.0221780e+04   3.0212299e+04   3.0203115e+04   3.0194214e+04   3.0185580e+04   3.0177195e+04   3.0169046e+04   3.0161116e+04   3.0153394e+04   3.0145870e+04   3.0138538e+04   3.0131394e+04   3.0124436e+04   3.0117667e+04   3.0111091e+04   3.0104714e+04   3.0098542e+04   3.0092584e+04   3.0086848e+04   3.0081342e+04   3.0076072e+04   3.0071046e+04   3.0066267e+04   3.0061738e+04   3.0057460e+04   3.0053434e+04   3.0049655e+04   3.0046119e+04   3.0042820e+04   3.0039750e+04   3.0036901e+04   3.0034261e+04   3.0031820e+04   3.0029567e+04   3.0027489e+04   3.0025574e+04   3.0023811e+04   3.0022188e+04   3.0020692e+04   3.0019315e+04   3.0018045e+04   3.0016872e+04   3.0015789e+04   3.0014787e+04   3.0013858e+04   3.0012995e+04   3.0012194e+04   3.0011447e+04   3.0010751e+04   3.0010101e+04   3.0009493e+04   3.0008924e+04   3.0008391e+04   3.0007891e+04   3.0007421e+04   3.0006980e+04   3.0006565e+04   3.0006176e+04
3.0157920e+04   3.0170576e+04   3.0183468e+04   3.0196505e+04   3.0209587e+04   3.0222615e+04   3.0235486e+04   3.0248100e+04   3.0260363e+04   3.0272185e+04   3.0283487e+04   3.0294202e+04   3.0304275e+04   3.0313667e+04   3.0322354e+04   3.0330331e+04   3.0337607e+04   3.0344208e+04   3.0350175e+04   3.0355564e+04   3.0360439e+04   3.0364875e+04   3.0368953e+04   3.0372755e+04   3.0376366e+04   3.0379864e+04   3.0383324e+04   3.0386808e+04   3.0390370e+04   3.0394046e+04   3.0397861e+04   3.0401818e+04   3.0405908e+04   3.0410101e+04   3.0414351e+04   3.0418599e+04   3.0422770e+04   3.0426779e+04   3.0430532e+04   3.0433929e+04   3.0436870e+04   3.0439253e+04   3.0440981e+04   3.0441966e+04   3.0442128e+04   3.0441400e+04   3.0439731e+04   3.0437085e+04   3.0433445e+04   3.0428809e+04   3.0423195e+04   3.0416638e+04   3.0409187e+04   3.0400907e+04   3.0391875e+04   3.0382175e+04   3.0371902e+04   3.0361152e+04   3.0350025e+04   3.0338620e+04   3.0327032e+04   3.0315352e+04   3.0303663e+04   3.0292041e+04   3.0280550e+04   3.0269248e+04   3.0258179e+04   3.0247378e+04   3.0236871e+04   3.0226675e+04   3.0216798e+04   3.0207242e+04   3.0198002e+04   3.0189070e+04   3.0180435e+04   3.0172081e+04   3.0163996e+04   3.0156164e+04   3.0148572e+04   3.0141208e+04   3.0134062e+04   3.0127126e+04   3.0120395e+04   3.0113867e+04   3.0107539e+04   3.0101415e+04   3.0095495e+04   3.0089785e+04   3.0084289e+04   3.0079012e+04   3.0073958e+04   3.0069131e+04   3.0064536e+04   3.0060174e+04   3.0056045e+04   3.0052151e+04   3.0048487e+04   3.0045051e+04   3.0041837e+04   3.0038840e+04   3.0036051e+04   3.0033461e+04   3.0031062e+04   3.0028842e+04   3.0026792e+04   3.0024901e+04   3.0023157e+04   3.0021550e+04   3.0020070e+04   3.0018706e+04   3.0017449e+04   3.0016289e+04   3.0015218e+04   3.0014228e+04   3.0013312e+04   3.0012464e+04   3.0011676e+04   3.0010944e+04   3.0010263e+04   3.0009628e+04   3.0009036e+04   3.0008483e+04   3.0007965e+04   3.0007481e+04   3.0007027e+04   3.0006601e+04   3.0006202e+04   3.0005827e+04   3.0005475e+04
3.0153418e+04   3.0165675e+04   3.0178153e+04   3.0190762e+04   3.0203406e+04   3.0215987e+04   3.0228405e+04   3.0240563e+04   3.0252369e+04   3.0263735e+04   3.0274586e+04   3.0284856e+04   3.0294493e+04   3.0303458e+04   3.0311730e+04   3.0319302e+04   3.0326187e+04   3.0332408e+04   3.0338007e+04   3.0343038e+04   3.0347563e+04   3.0351657e+04   3.0355398e+04   3.0358867e+04   3.0362145e+04   3.0365309e+04   3.0368431e+04   3.0371573e+04   3.0374787e+04   3.0378109e+04   3.0381561e+04   3.0385151e+04   3.0388867e+04   3.0392683e+04   3.0396556e+04   3.0400428e+04   3.0404230e+04   3.0407880e+04   3.0411289e+04   3.0414363e+04   3.0417004e+04   3.0419118e+04   3.0420611e+04   3.0421399e+04   3.0421405e+04   3.0420567e+04   3.0418835e+04   3.0416173e+04   3.0412566e+04   3.0408011e+04   3.0402524e+04   3.0396137e+04   3.0388897e+04   3.0380865e+04   3.0372112e+04   3.0362719e+04   3.0352775e+04   3.0342371e+04   3.0331602e+04   3.0320562e+04   3.0309342e+04   3.0298029e+04   3.0286703e+04   3.0275438e+04   3.0264296e+04   3.0253333e+04   3.0242595e+04   3.0232116e+04   3.0221924e+04   3.0212036e+04   3.0202464e+04   3.0193212e+04   3.0184276e+04   3.0175653e+04   3.0167331e+04   3.0159300e+04   3.0151547e+04   3.0144060e+04   3.0136824e+04   3.0129830e+04   3.0123067e+04   3.0116526e+04   3.0110201e+04   3.0104089e+04   3.0098186e+04   3.0092492e+04   3.0087006e+04   3.0081729e+04   3.0076665e+04   3.0071815e+04   3.0067181e+04   3.0062764e+04   3.0058567e+04   3.0054588e+04   3.0050828e+04   3.0047285e+04   3.0043954e+04   3.0040833e+04   3.0037915e+04   3.0035193e+04   3.0032661e+04   3.0030310e+04   3.0028131e+04   3.0026115e+04   3.0024252e+04   3.0022532e+04   3.0020946e+04   3.0019483e+04   3.0018135e+04   3.0016892e+04   3.0015746e+04   3.0014688e+04   3.0013711e+04   3.0012808e+04   3.0011972e+04   3.0011198e+04   3.0010479e+04   3.0009812e+04   3.0009191e+04   3.0008613e+04   3.0008074e+04   3.0007571e+04   3.0007101e+04   3.0006661e+04   3.0006250e+04   3.0005865e+04   3.0005504e+04   3.0005165e+04   3.0004848e+04
3.0148568e+04   3.0160401e+04   3.0172441e+04   3.0184599e+04   3.0196783e+04   3.0208896e+04   3.0220842e+04   3.0232526e+04   3.0243859e+04   3.0254757e+04   3.0265145e+04   3.0274961e+04   3.0284153e+04   3.0292686e+04   3.0300538e+04   3.0307704e+04   3.0314194e+04   3.0320035e+04   3.0325264e+04   3.0329935e+04   3.0334109e+04   3.0337858e+04   3.0341256e+04   3.0344384e+04   3.0347319e+04   3.0350136e+04   3.0352906e+04   3.0355687e+04   3.0358531e+04   3.0361473e+04   3.0364536e+04   3.0367727e+04   3.0371037e+04   3.0374442e+04   3.0377902e+04   3.0381363e+04   3.0384759e+04   3.0388015e+04   3.0391047e+04   3.0393766e+04   3.0396081e+04   3.0397901e+04   3.0399139e+04   3.0399716e+04   3.0399560e+04   3.0398610e+04   3.0396820e+04   3.0394157e+04   3.0390603e+04   3.0386157e+04   3.0380832e+04   3.0374660e+04   3.0367681e+04   3.0359954e+04   3.0351544e+04   3.0342527e+04   3.0332986e+04   3.0323007e+04   3.0312678e+04   3.0302089e+04   3.0291325e+04   3.0280468e+04   3.0269595e+04   3.0258775e+04   3.0248070e+04   3.0237533e+04   3.0227209e+04   3.0217132e+04   3.0207330e+04   3.0197822e+04   3.0188621e+04   3.0179732e+04   3.0171156e+04   3.0162888e+04   3.0154922e+04   3.0147248e+04   3.0139855e+04   3.0132733e+04   3.0125868e+04   3.0119251e+04   3.0112873e+04   3.0106723e+04   3.0100796e+04   3.0095086e+04   3.0089589e+04   3.0084302e+04   3.0079224e+04   3.0074354e+04   3.0069691e+04   3.0065237e+04   3.0060990e+04   3.0056951e+04   3.0053118e+04   3.0049492e+04   3.0046068e+04   3.0042845e+04   3.0039819e+04   3.0036984e+04   3.0034335e+04   3.0031865e+04   3.0029567e+04   3.0027434e+04   3.0025456e+04   3.0023625e+04   3.0021933e+04   3.0020370e+04   3.0018928e+04   3.0017597e+04   3.0016370e+04   3.0015238e+04   3.0014194e+04   3.0013231e+04   3.0012340e+04   3.0011517e+04   3.0010755e+04   3.0010050e+04   3.0009395e+04   3.0008788e+04   3.0008223e+04   3.0007697e+04   3.0007207e+04   3.0006750e+04   3.0006324e+04   3.0005925e+04   3.0005553e+04   3.0005205e+04   3.0004879e+04   3.0004574e+04   3.0004288e+04
3.0143406e+04   3.0154794e+04   3.0166375e+04   3.0178063e+04   3.0189767e+04   3.0201394e+04   3.0212852e+04   3.0224049e+04   3.0234896e+04   3.0245315e+04   3.0255232e+04   3.0264587e+04   3.0273330e+04   3.0281428e+04   3.0288859e+04   3.0295618e+04   3.0301717e+04   3.0307178e+04   3.0312041e+04   3.0316355e+04   3.0320180e+04   3.0323585e+04   3.0326642e+04   3.0329428e+04   3.0332018e+04   3.0334485e+04   3.0336895e+04   3.0339307e+04   3.0341769e+04   3.0344318e+04   3.0346975e+04   3.0349750e+04   3.0352634e+04   3.0355606e+04   3.0358629e+04   3.0361656e+04   3.0364624e+04   3.0367463e+04   3.0370096e+04   3.0372440e+04   3.0374410e+04   3.0375922e+04   3.0376895e+04   3.0377254e+04   3.0376932e+04   3.0375873e+04   3.0374032e+04   3.0371379e+04   3.0367897e+04   3.0363584e+04   3.0358453e+04   3.0352529e+04   3.0345853e+04   3.0338477e+04   3.0330461e+04   3.0321876e+04   3.0312797e+04   3.0303306e+04   3.0293485e+04   3.0283415e+04   3.0273177e+04   3.0262848e+04   3.0252500e+04   3.0242199e+04   3.0232002e+04   3.0221961e+04   3.0212118e+04   3.0202508e+04   3.0193158e+04   3.0184088e+04   3.0175312e+04   3.0166836e+04   3.0158662e+04   3.0150789e+04   3.0143211e+04   3.0135921e+04   3.0128910e+04   3.0122168e+04   3.0115684e+04   3.0109448e+04   3.0103453e+04   3.0097688e+04   3.0092147e+04   3.0086824e+04   3.0081713e+04   3.0076812e+04   3.0072117e+04   3.0067625e+04   3.0063335e+04   3.0059246e+04   3.0055355e+04   3.0051662e+04   3.0048163e+04   3.0044857e+04   3.0041740e+04   3.0038809e+04   3.0036058e+04   3.0033483e+04   3.0031078e+04   3.0028836e+04   3.0026751e+04   3.0024815e+04   3.0023020e+04   3.0021358e+04   3.0019821e+04   3.0018401e+04   3.0017090e+04   3.0015880e+04   3.0014764e+04   3.0013734e+04   3.0012784e+04   3.0011906e+04   3.0011096e+04   3.0010346e+04   3.0009652e+04   3.0009010e+04   3.0008414e+04   3.0007862e+04   3.0007348e+04   3.0006870e+04   3.0006426e+04   3.0006011e+04   3.0005625e+04   3.0005265e+04   3.0004928e+04   3.0004614e+04   3.0004320e+04   3.0004045e+04   3.0003788e+04
3.0137974e+04   3.0148899e+04   3.0160003e+04   3.0171203e+04   3.0182412e+04   3.0193540e+04   3.0204496e+04   3.0215193e+04   3.0225546e+04   3.0235478e+04   3.0244918e+04   3.0253809e+04   3.0262102e+04   3.0269765e+04   3.0276777e+04   3.0283134e+04   3.0288845e+04   3.0293934e+04   3.0298436e+04   3.0302401e+04   3.0305884e+04   3.0308953e+04   3.0311675e+04   3.0314125e+04   3.0316375e+04   3.0318494e+04   3.0320547e+04   3.0322589e+04   3.0324669e+04   3.0326822e+04   3.0329069e+04   3.0331420e+04   3.0333871e+04   3.0336401e+04   3.0338980e+04   3.0341561e+04   3.0344090e+04   3.0346503e+04   3.0348727e+04   3.0350687e+04   3.0352305e+04   3.0353503e+04   3.0354207e+04   3.0354347e+04   3.0353861e+04   3.0352698e+04   3.0350816e+04   3.0348186e+04   3.0344791e+04   3.0340631e+04   3.0335716e+04   3.0330069e+04   3.0323727e+04   3.0316736e+04   3.0309152e+04   3.0301041e+04   3.0292470e+04   3.0283514e+04   3.0274249e+04   3.0264750e+04   3.0255092e+04   3.0245345e+04   3.0235576e+04   3.0225848e+04   3.0216213e+04   3.0206720e+04   3.0197411e+04   3.0188318e+04   3.0179468e+04   3.0170880e+04   3.0162569e+04   3.0154543e+04   3.0146805e+04   3.0139356e+04   3.0132191e+04   3.0125304e+04   3.0118689e+04   3.0112337e+04   3.0106239e+04   3.0100385e+04   3.0094768e+04   3.0089379e+04   3.0084212e+04   3.0079259e+04   3.0074516e+04   3.0069978e+04   3.0065641e+04   3.0061502e+04   3.0057557e+04   3.0053804e+04   3.0050240e+04   3.0046862e+04   3.0043667e+04   3.0040653e+04   3.0037814e+04   3.0035146e+04   3.0032646e+04   3.0030306e+04   3.0028122e+04   3.0026086e+04   3.0024193e+04   3.0022436e+04   3.0020806e+04   3.0019297e+04   3.0017901e+04   3.0016611e+04   3.0015419e+04   3.0014320e+04   3.0013305e+04   3.0012368e+04   3.0011503e+04   3.0010705e+04   3.0009967e+04   3.0009285e+04   3.0008654e+04   3.0008069e+04   3.0007528e+04   3.0007026e+04   3.0006559e+04   3.0006126e+04   3.0005723e+04   3.0005348e+04   3.0004998e+04   3.0004672e+04   3.0004369e+04   3.0004085e+04   3.0003820e+04   3.0003573e+04   3.0003342e+04
3.0132313e+04   3.0142760e+04   3.0153373e+04   3.0164073e+04   3.0174774e+04   3.0185391e+04   3.0195837e+04   3.0206026e+04   3.0215879e+04   3.0225319e+04   3.0234280e+04   3.0242705e+04   3.0250550e+04   3.0257781e+04   3.0264380e+04   3.0270341e+04   3.0275673e+04   3.0280398e+04   3.0284551e+04   3.0288177e+04   3.0291331e+04   3.0294075e+04   3.0296475e+04   3.0298601e+04   3.0300522e+04   3.0302304e+04   3.0304010e+04   3.0305692e+04   3.0307398e+04   3.0309161e+04   3.0311004e+04   3.0312937e+04   3.0314958e+04   3.0317051e+04   3.0319186e+04   3.0321325e+04   3.0323417e+04   3.0325404e+04   3.0327221e+04   3.0328799e+04   3.0330067e+04   3.0330955e+04   3.0331394e+04   3.0331320e+04   3.0330677e+04   3.0329417e+04   3.0327503e+04   3.0324907e+04   3.0321614e+04   3.0317622e+04   3.0312940e+04   3.0307589e+04   3.0301602e+04   3.0295021e+04   3.0287896e+04   3.0280285e+04   3.0272252e+04   3.0263863e+04   3.0255187e+04   3.0246294e+04   3.0237250e+04   3.0228122e+04   3.0218970e+04   3.0209851e+04   3.0200815e+04   3.0191908e+04   3.0183168e+04   3.0174627e+04   3.0166309e+04   3.0158235e+04   3.0150418e+04   3.0142868e+04   3.0135589e+04   3.0128582e+04   3.0121845e+04   3.0115374e+04   3.0109164e+04   3.0103206e+04   3.0097494e+04   3.0092019e+04   3.0086773e+04   3.0081750e+04   3.0076943e+04   3.0072344e+04   3.0067949e+04   3.0063752e+04   3.0059750e+04   3.0055937e+04   3.0052311e+04   3.0048867e+04   3.0045602e+04   3.0042513e+04   3.0039595e+04   3.0036845e+04   3.0034258e+04   3.0031829e+04   3.0029554e+04   3.0027427e+04   3.0025442e+04   3.0023593e+04   3.0021874e+04   3.0020277e+04   3.0018797e+04   3.0017426e+04   3.0016158e+04   3.0014986e+04   3.0013903e+04   3.0012903e+04   3.0011980e+04   3.0011128e+04   3.0010342e+04   3.0009615e+04   3.0008944e+04   3.0008324e+04   3.0007751e+04   3.0007220e+04   3.0006728e+04   3.0006272e+04   3.0005849e+04   3.0005456e+04   3.0005091e+04   3.0004752e+04   3.0004436e+04   3.0004142e+04   3.0003868e+04   3.0003613e+04   3.0003375e+04   3.0003153e+04   3.0002946e+04
3.0126468e+04   3.0136426e+04   3.0146537e+04   3.0156726e+04   3.0166911e+04   3.0177010e+04   3.0186939e+04   3.0196616e+04   3.0205964e+04   3.0214912e+04   3.0223394e+04   3.0231357e+04   3.0238757e+04   3.0245563e+04   3.0251755e+04   3.0257330e+04   3.0262294e+04   3.0266668e+04   3.0270485e+04   3.0273788e+04   3.0276628e+04   3.0279064e+04   3.0281158e+04   3.0282978e+04   3.0284587e+04   3.0286050e+04   3.0287425e+04   3.0288764e+04   3.0290112e+04   3.0291502e+04   3.0292957e+04   3.0294488e+04   3.0296094e+04   3.0297762e+04   3.0299468e+04   3.0301177e+04   3.0302844e+04   3.0304418e+04   3.0305840e+04   3.0307048e+04   3.0307977e+04   3.0308565e+04   3.0308749e+04   3.0308472e+04   3.0307683e+04   3.0306337e+04   3.0304401e+04   3.0301849e+04   3.0298669e+04   3.0294856e+04   3.0290419e+04   3.0285376e+04   3.0279757e+04   3.0273599e+04   3.0266946e+04   3.0259852e+04   3.0252372e+04   3.0244566e+04   3.0236497e+04   3.0228227e+04   3.0219818e+04   3.0211327e+04   3.0202813e+04   3.0194324e+04   3.0185909e+04   3.0177609e+04   3.0169459e+04   3.0161489e+04   3.0153723e+04   3.0146180e+04   3.0138874e+04   3.0131814e+04   3.0125007e+04   3.0118453e+04   3.0112152e+04   3.0106103e+04   3.0100298e+04   3.0094735e+04   3.0089405e+04   3.0084301e+04   3.0079418e+04   3.0074749e+04   3.0070286e+04   3.0066025e+04   3.0061959e+04   3.0058083e+04   3.0054392e+04   3.0050883e+04   3.0047551e+04   3.0044391e+04   3.0041400e+04   3.0038573e+04   3.0035907e+04   3.0033397e+04   3.0031039e+04   3.0028826e+04   3.0026755e+04   3.0024820e+04   3.0023015e+04   3.0021334e+04   3.0019771e+04   3.0018320e+04   3.0016975e+04   3.0015729e+04   3.0014577e+04   3.0013511e+04   3.0012527e+04   3.0011618e+04   3.0010779e+04   3.0010005e+04   3.0009289e+04   3.0008629e+04   3.0008019e+04   3.0007456e+04   3.0006935e+04   3.0006453e+04   3.0006006e+04   3.0005593e+04   3.0005210e+04   3.0004854e+04   3.0004524e+04   3.0004217e+04   3.0003932e+04   3.0003667e+04   3.0003421e+04   3.0003191e+04   3.0002977e+04   3.0002778e+04   3.0002593e+04
3.0120484e+04   3.0129944e+04   3.0139547e+04   3.0149219e+04   3.0158883e+04   3.0168458e+04   3.0177867e+04   3.0187031e+04   3.0195875e+04   3.0204331e+04   3.0212338e+04   3.0219844e+04   3.0226806e+04   3.0233195e+04   3.0238992e+04   3.0244192e+04   3.0248802e+04   3.0252840e+04   3.0256338e+04   3.0259335e+04   3.0261880e+04   3.0264027e+04   3.0265837e+04   3.0267371e+04   3.0268691e+04   3.0269857e+04   3.0270925e+04   3.0271945e+04   3.0272958e+04   3.0273999e+04   3.0275089e+04   3.0276241e+04   3.0277456e+04   3.0278723e+04   3.0280023e+04   3.0281325e+04   3.0282590e+04   3.0283772e+04   3.0284819e+04   3.0285676e+04   3.0286286e+04   3.0286592e+04   3.0286538e+04   3.0286073e+04   3.0285150e+04   3.0283731e+04   3.0281784e+04   3.0279287e+04   3.0276227e+04   3.0272600e+04   3.0268415e+04   3.0263686e+04   3.0258439e+04   3.0252707e+04   3.0246530e+04   3.0239955e+04   3.0233031e+04   3.0225812e+04   3.0218353e+04   3.0210711e+04   3.0202940e+04   3.0195093e+04   3.0187220e+04   3.0179369e+04   3.0171581e+04   3.0163894e+04   3.0156340e+04   3.0148949e+04   3.0141741e+04   3.0134736e+04   3.0127946e+04   3.0121382e+04   3.0115050e+04   3.0108951e+04   3.0103088e+04   3.0097457e+04   3.0092057e+04   3.0086881e+04   3.0081926e+04   3.0077186e+04   3.0072654e+04   3.0068324e+04   3.0064191e+04   3.0060249e+04   3.0056493e+04   3.0052918e+04   3.0049519e+04   3.0046291e+04   3.0043230e+04   3.0040331e+04   3.0037591e+04   3.0035005e+04   3.0032568e+04   3.0030276e+04   3.0028125e+04   3.0026108e+04   3.0024221e+04   3.0022460e+04   3.0020817e+04   3.0019288e+04   3.0017866e+04   3.0016547e+04   3.0015324e+04   3.0014192e+04   3.0013144e+04   3.0012175e+04   3.0011280e+04   3.0010454e+04   3.0009691e+04   3.0008987e+04   3.0008337e+04   3.0007737e+04   3.0007183e+04   3.0006671e+04   3.0006198e+04   3.0005761e+04   3.0005357e+04   3.0004982e+04   3.0004635e+04   3.0004314e+04   3.0004015e+04   3.0003739e+04   3.0003482e+04   3.0003243e+04   3.0003021e+04   3.0002815e+04   3.0002624e+04   3.0002445e+04   3.0002280e+04
3.0114405e+04   3.0123364e+04   3.0132455e+04   3.0141606e+04   3.0150746e+04   3.0159799e+04   3.0168688e+04   3.0177339e+04   3.0185682e+04   3.0193652e+04   3.0201189e+04   3.0208245e+04   3.0214779e+04   3.0220761e+04   3.0226175e+04   3.0231015e+04   3.0235286e+04   3.0239006e+04   3.0242203e+04   3.0244914e+04   3.0247185e+04   3.0249066e+04   3.0250615e+04   3.0251888e+04   3.0252945e+04   3.0253841e+04   3.0254630e+04   3.0255359e+04   3.0256067e+04   3.0256788e+04   3.0257544e+04   3.0258348e+04   3.0259203e+04   3.0260100e+04   3.0261025e+04   3.0261950e+04   3.0262842e+04   3.0263661e+04   3.0264361e+04   3.0264894e+04   3.0265210e+04   3.0265256e+04   3.0264985e+04   3.0264350e+04   3.0263311e+04   3.0261833e+04   3.0259886e+04   3.0257452e+04   3.0254519e+04   3.0251082e+04   3.0247149e+04   3.0242733e+04   3.0237855e+04   3.0232546e+04   3.0226839e+04   3.0220775e+04   3.0214400e+04   3.0207759e+04   3.0200902e+04   3.0193879e+04   3.0186737e+04   3.0179525e+04   3.0172288e+04   3.0165066e+04   3.0157899e+04   3.0150819e+04   3.0143858e+04   3.0137041e+04   3.0130387e+04   3.0123916e+04   3.0117639e+04   3.0111566e+04   3.0105704e+04   3.0100056e+04   3.0094623e+04   3.0089405e+04   3.0084400e+04   3.0079605e+04   3.0075014e+04   3.0070624e+04   3.0066429e+04   3.0062425e+04   3.0058606e+04   3.0054967e+04   3.0051503e+04   3.0048209e+04   3.0045081e+04   3.0042114e+04   3.0039304e+04   3.0036646e+04   3.0034136e+04   3.0031769e+04   3.0029542e+04   3.0027448e+04   3.0025485e+04   3.0023646e+04   3.0021926e+04   3.0020321e+04   3.0018825e+04   3.0017434e+04   3.0016140e+04   3.0014940e+04   3.0013828e+04   3.0012798e+04   3.0011845e+04   3.0010964e+04   3.0010150e+04   3.0009399e+04   3.0008706e+04   3.0008066e+04   3.0007476e+04   3.0006931e+04   3.0006428e+04   3.0005963e+04   3.0005534e+04   3.0005138e+04   3.0004772e+04   3.0004433e+04   3.0004119e+04   3.0003829e+04   3.0003560e+04   3.0003310e+04   3.0003079e+04   3.0002865e+04   3.0002666e+04   3.0002481e+04   3.0002309e+04   3.0002150e+04   3.0002002e+04
3.0108276e+04   3.0116732e+04   3.0125310e+04   3.0133943e+04   3.0142560e+04   3.0151091e+04   3.0159464e+04   3.0167608e+04   3.0175456e+04   3.0182946e+04   3.0190022e+04   3.0196638e+04   3.0202754e+04   3.0208343e+04   3.0213388e+04   3.0217883e+04   3.0221832e+04   3.0225252e+04   3.0228168e+04   3.0230615e+04   3.0232635e+04   3.0234275e+04   3.0235588e+04   3.0236628e+04   3.0237450e+04   3.0238106e+04   3.0238647e+04   3.0239117e+04   3.0239554e+04   3.0239989e+04   3.0240446e+04   3.0240938e+04   3.0241468e+04   3.0242033e+04   3.0242618e+04   3.0243202e+04   3.0243757e+04   3.0244247e+04   3.0244634e+04   3.0244875e+04   3.0244924e+04   3.0244739e+04   3.0244275e+04   3.0243492e+04   3.0242355e+04   3.0240831e+04   3.0238897e+04   3.0236534e+04   3.0233731e+04   3.0230486e+04   3.0226802e+04   3.0222693e+04   3.0218176e+04   3.0213277e+04   3.0208027e+04   3.0202460e+04   3.0196616e+04   3.0190535e+04   3.0184261e+04   3.0177838e+04   3.0171307e+04   3.0164711e+04   3.0158090e+04   3.0151481e+04   3.0144917e+04   3.0138430e+04   3.0132045e+04   3.0125787e+04   3.0119675e+04   3.0113725e+04   3.0107949e+04   3.0102356e+04   3.0096953e+04   3.0091744e+04   3.0086731e+04   3.0081915e+04   3.0077293e+04   3.0072864e+04   3.0068625e+04   3.0064571e+04   3.0060699e+04   3.0057005e+04   3.0053483e+04   3.0050130e+04   3.0046940e+04   3.0043910e+04   3.0041035e+04   3.0038311e+04   3.0035732e+04   3.0033296e+04   3.0030997e+04   3.0028832e+04   3.0026795e+04   3.0024883e+04   3.0023090e+04   3.0021413e+04   3.0019845e+04   3.0018382e+04   3.0017020e+04   3.0015753e+04   3.0014575e+04   3.0013483e+04   3.0012471e+04   3.0011534e+04   3.0010668e+04   3.0009867e+04   3.0009127e+04   3.0008444e+04   3.0007814e+04   3.0007233e+04   3.0006697e+04   3.0006202e+04   3.0005746e+04   3.0005325e+04   3.0004936e+04   3.0004578e+04   3.0004246e+04   3.0003940e+04   3.0003657e+04   3.0003395e+04   3.0003152e+04   3.0002928e+04   3.0002720e+04   3.0002527e+04   3.0002349e+04   3.0002183e+04   3.0002030e+04   3.0001887e+04   3.0001755e+04
3.0102139e+04   3.0110095e+04   3.0118163e+04   3.0126280e+04   3.0134380e+04   3.0142395e+04   3.0150257e+04   3.0157901e+04   3.0165262e+04   3.0172282e+04   3.0178908e+04   3.0185095e+04   3.0190807e+04   3.0196017e+04   3.0200709e+04   3.0204875e+04   3.0208521e+04   3.0211660e+04   3.0214316e+04   3.0216521e+04   3.0218314e+04   3.0219738e+04   3.0220843e+04   3.0221678e+04   3.0222294e+04   3.0222742e+04   3.0223067e+04   3.0223312e+04   3.0223513e+04   3.0223701e+04   3.0223897e+04   3.0224114e+04   3.0224360e+04   3.0224632e+04   3.0224918e+04   3.0225202e+04   3.0225459e+04   3.0225659e+04   3.0225769e+04   3.0225751e+04   3.0225568e+04   3.0225180e+04   3.0224550e+04   3.0223642e+04   3.0222425e+04   3.0220872e+04   3.0218961e+04   3.0216675e+04   3.0214006e+04   3.0210949e+04   3.0207510e+04   3.0203697e+04   3.0199528e+04   3.0195023e+04   3.0190210e+04   3.0185118e+04   3.0179781e+04   3.0174235e+04   3.0168518e+04   3.0162667e+04   3.0156719e+04   3.0150712e+04   3.0144681e+04   3.0138657e+04   3.0132672e+04   3.0126752e+04   3.0120922e+04   3.0115203e+04   3.0109611e+04   3.0104163e+04   3.0098868e+04   3.0093738e+04   3.0088778e+04   3.0083992e+04   3.0079383e+04   3.0074952e+04   3.0070699e+04   3.0066622e+04   3.0062719e+04   3.0058986e+04   3.0055421e+04   3.0052021e+04   3.0048780e+04   3.0045696e+04   3.0042764e+04   3.0039980e+04   3.0037341e+04   3.0034841e+04   3.0032477e+04   3.0030246e+04   3.0028142e+04   3.0026161e+04   3.0024299e+04   3.0022553e+04   3.0020916e+04   3.0019385e+04   3.0017956e+04   3.0016623e+04   3.0015382e+04   3.0014227e+04   3.0013156e+04   3.0012162e+04   3.0011241e+04   3.0010389e+04   3.0009601e+04   3.0008873e+04   3.0008200e+04   3.0007580e+04   3.0007008e+04   3.0006480e+04   3.0005993e+04   3.0005545e+04   3.0005131e+04   3.0004750e+04   3.0004398e+04   3.0004073e+04   3.0003774e+04   3.0003497e+04   3.0003242e+04   3.0003006e+04   3.0002788e+04   3.0002586e+04   3.0002399e+04   3.0002227e+04   3.0002067e+04   3.0001919e+04   3.0001782e+04   3.0001655e+04   3.0001537e+04
3.0096035e+04   3.0103497e+04   3.0111061e+04   3.0118669e+04   3.0126258e+04   3.0133765e+04   3.0141126e+04   3.0148279e+04   3.0155164e+04   3.0161725e+04   3.0167913e+04   3.0173686e+04   3.0179008e+04   3.0183854e+04   3.0188209e+04   3.0192065e+04   3.0195426e+04   3.0198304e+04   3.0200722e+04   3.0202708e+04   3.0204297e+04   3.0205531e+04   3.0206453e+04   3.0207112e+04   3.0207554e+04   3.0207824e+04   3.0207967e+04   3.0208023e+04   3.0208025e+04   3.0208002e+04   3.0207976e+04   3.0207961e+04   3.0207964e+04   3.0207984e+04   3.0208013e+04   3.0208038e+04   3.0208038e+04   3.0207988e+04   3.0207859e+04   3.0207620e+04   3.0207238e+04   3.0206678e+04   3.0205909e+04   3.0204901e+04   3.0203624e+04   3.0202057e+04   3.0200179e+04   3.0197976e+04   3.0195441e+04   3.0192569e+04   3.0189365e+04   3.0185837e+04   3.0181998e+04   3.0177867e+04   3.0173467e+04   3.0168823e+04   3.0163964e+04   3.0158922e+04   3.0153729e+04   3.0148418e+04   3.0143020e+04   3.0137569e+04   3.0132094e+04   3.0126624e+04   3.0121186e+04   3.0115803e+04   3.0110498e+04   3.0105289e+04   3.0100192e+04   3.0095221e+04   3.0090386e+04   3.0085696e+04   3.0081157e+04   3.0076775e+04   3.0072551e+04   3.0068488e+04   3.0064586e+04   3.0060843e+04   3.0057259e+04   3.0053831e+04   3.0050557e+04   3.0047434e+04   3.0044458e+04   3.0041626e+04   3.0038936e+04   3.0036382e+04   3.0033962e+04   3.0031671e+04   3.0029506e+04   3.0027464e+04   3.0025539e+04   3.0023728e+04   3.0022027e+04   3.0020432e+04   3.0018939e+04   3.0017542e+04   3.0016239e+04   3.0015024e+04   3.0013893e+04   3.0012842e+04   3.0011867e+04   3.0010962e+04   3.0010125e+04   3.0009350e+04   3.0008633e+04   3.0007972e+04   3.0007361e+04   3.0006798e+04   3.0006278e+04   3.0005800e+04   3.0005358e+04   3.0004952e+04   3.0004577e+04   3.0004232e+04   3.0003914e+04   3.0003621e+04   3.0003350e+04   3.0003101e+04   3.0002871e+04   3.0002659e+04   3.0002463e+04   3.0002281e+04   3.0002114e+04   3.0001960e+04   3.0001817e+04   3.0001684e+04   3.0001562e+04   3.0001449e+04   3.0001344e+04
3.0090003e+04   3.0096978e+04   3.0104047e+04   3.0111155e+04   3.0118244e+04   3.0125254e+04   3.0132125e+04   3.0138800e+04   3.0145221e+04   3.0151337e+04   3.0157102e+04   3.0162474e+04   3.0167422e+04   3.0171921e+04   3.0175955e+04   3.0179519e+04   3.0182614e+04   3.0185252e+04   3.0187452e+04   3.0189240e+04   3.0190649e+04   3.0191717e+04   3.0192485e+04   3.0192995e+04   3.0193291e+04   3.0193415e+04   3.0193410e+04   3.0193310e+04   3.0193149e+04   3.0192954e+04   3.0192745e+04   3.0192537e+04   3.0192338e+04   3.0192148e+04   3.0191963e+04   3.0191771e+04   3.0191556e+04   3.0191296e+04   3.0190968e+04   3.0190544e+04   3.0189996e+04   3.0189296e+04   3.0188416e+04   3.0187330e+04   3.0186013e+04   3.0184445e+04   3.0182610e+04   3.0180495e+04   3.0178094e+04   3.0175402e+04   3.0172424e+04   3.0169165e+04   3.0165637e+04   3.0161856e+04   3.0157842e+04   3.0153616e+04   3.0149204e+04   3.0144632e+04   3.0139927e+04   3.0135118e+04   3.0130232e+04   3.0125299e+04   3.0120343e+04   3.0115390e+04   3.0110464e+04   3.0105585e+04   3.0100772e+04   3.0096042e+04   3.0091410e+04   3.0086887e+04   3.0082485e+04   3.0078210e+04   3.0074070e+04   3.0070068e+04   3.0066209e+04   3.0062493e+04   3.0058922e+04   3.0055496e+04   3.0052213e+04   3.0049072e+04   3.0046072e+04   3.0043209e+04   3.0040482e+04   3.0037887e+04   3.0035422e+04   3.0033083e+04   3.0030867e+04   3.0028771e+04   3.0026790e+04   3.0024922e+04   3.0023163e+04   3.0021509e+04   3.0019956e+04   3.0018500e+04   3.0017138e+04   3.0015865e+04   3.0014677e+04   3.0013570e+04   3.0012541e+04   3.0011584e+04   3.0010696e+04   3.0009873e+04   3.0009112e+04   3.0008407e+04   3.0007757e+04   3.0007156e+04   3.0006601e+04   3.0006090e+04   3.0005619e+04   3.0005185e+04   3.0004785e+04   3.0004417e+04   3.0004078e+04   3.0003766e+04   3.0003479e+04   3.0003214e+04   3.0002971e+04   3.0002746e+04   3.0002539e+04   3.0002348e+04   3.0002172e+04   3.0002010e+04   3.0001860e+04   3.0001722e+04   3.0001595e+04   3.0001477e+04   3.0001368e+04   3.0001267e+04   3.0001174e+04
3.0084077e+04   3.0090576e+04   3.0097161e+04   3.0103782e+04   3.0110383e+04   3.0116909e+04   3.0123304e+04   3.0129515e+04   3.0135487e+04   3.0141173e+04   3.0146529e+04   3.0151517e+04   3.0156107e+04   3.0160276e+04   3.0164008e+04   3.0167297e+04   3.0170145e+04   3.0172562e+04   3.0174564e+04   3.0176176e+04   3.0177428e+04   3.0178354e+04   3.0178991e+04   3.0179378e+04   3.0179557e+04   3.0179565e+04   3.0179441e+04   3.0179220e+04   3.0178930e+04   3.0178599e+04   3.0178245e+04   3.0177883e+04   3.0177522e+04   3.0177164e+04   3.0176805e+04   3.0176436e+04   3.0176046e+04   3.0175616e+04   3.0175125e+04   3.0174553e+04   3.0173873e+04   3.0173063e+04   3.0172098e+04   3.0170957e+04   3.0169617e+04   3.0168063e+04   3.0166280e+04   3.0164256e+04   3.0161987e+04   3.0159469e+04   3.0156704e+04   3.0153698e+04   3.0150461e+04   3.0147006e+04   3.0143350e+04   3.0139511e+04   3.0135511e+04   3.0131372e+04   3.0127117e+04   3.0122772e+04   3.0118359e+04   3.0113904e+04   3.0109428e+04   3.0104954e+04   3.0100501e+04   3.0096088e+04   3.0091732e+04   3.0087448e+04   3.0083248e+04   3.0079145e+04   3.0075146e+04   3.0071260e+04   3.0067492e+04   3.0063847e+04   3.0060329e+04   3.0056940e+04   3.0053680e+04   3.0050550e+04   3.0047550e+04   3.0044679e+04   3.0041935e+04   3.0039317e+04   3.0036822e+04   3.0034449e+04   3.0032194e+04   3.0030055e+04   3.0028029e+04   3.0026113e+04   3.0024304e+04   3.0022598e+04   3.0020992e+04   3.0019482e+04   3.0018065e+04   3.0016738e+04   3.0015496e+04   3.0014336e+04   3.0013254e+04   3.0012247e+04   3.0011310e+04   3.0010439e+04   3.0009632e+04   3.0008884e+04   3.0008192e+04   3.0007553e+04   3.0006962e+04   3.0006416e+04   3.0005914e+04   3.0005450e+04   3.0005023e+04   3.0004630e+04   3.0004269e+04   3.0003936e+04   3.0003630e+04   3.0003348e+04   3.0003089e+04   3.0002850e+04   3.0002631e+04   3.0002429e+04   3.0002243e+04   3.0002072e+04   3.0001914e+04   3.0001769e+04   3.0001635e+04   3.0001512e+04   3.0001398e+04   3.0001293e+04   3.0001196e+04   3.0001107e+04   3.0001024e+04
3.0078290e+04   3.0084326e+04   3.0090441e+04   3.0096588e+04   3.0102716e+04   3.0108774e+04   3.0114709e+04   3.0120470e+04   3.0126010e+04   3.0131282e+04   3.0136247e+04   3.0140868e+04   3.0145117e+04   3.0148972e+04   3.0152419e+04   3.0155451e+04   3.0158070e+04   3.0160284e+04   3.0162109e+04   3.0163565e+04   3.0164680e+04   3.0165486e+04   3.0166015e+04   3.0166305e+04   3.0166391e+04   3.0166311e+04   3.0166098e+04   3.0165785e+04   3.0165399e+04   3.0164964e+04   3.0164501e+04   3.0164022e+04   3.0163536e+04   3.0163047e+04   3.0162552e+04   3.0162047e+04   3.0161519e+04   3.0160955e+04   3.0160339e+04   3.0159651e+04   3.0158871e+04   3.0157979e+04   3.0156954e+04   3.0155778e+04   3.0154433e+04   3.0152905e+04   3.0151180e+04   3.0149251e+04   3.0147112e+04   3.0144760e+04   3.0142196e+04   3.0139427e+04   3.0136460e+04   3.0133306e+04   3.0129979e+04   3.0126495e+04   3.0122872e+04   3.0119130e+04   3.0115288e+04   3.0111366e+04   3.0107387e+04   3.0103369e+04   3.0099333e+04   3.0095297e+04   3.0091279e+04   3.0087296e+04   3.0083360e+04   3.0079487e+04   3.0075687e+04   3.0071971e+04   3.0068346e+04   3.0064821e+04   3.0061399e+04   3.0058087e+04   3.0054887e+04   3.0051801e+04   3.0048832e+04   3.0045979e+04   3.0043243e+04   3.0040624e+04   3.0038120e+04   3.0035730e+04   3.0033453e+04   3.0031286e+04   3.0029227e+04   3.0027275e+04   3.0025425e+04   3.0023676e+04   3.0022025e+04   3.0020469e+04   3.0019005e+04   3.0017629e+04   3.0016338e+04   3.0015129e+04   3.0013998e+04   3.0012942e+04   3.0011958e+04   3.0011041e+04   3.0010189e+04   3.0009398e+04   3.0008665e+04   3.0007986e+04   3.0007358e+04   3.0006777e+04   3.0006241e+04   3.0005747e+04   3.0005291e+04   3.0004872e+04   3.0004485e+04   3.0004130e+04   3.0003803e+04   3.0003503e+04   3.0003226e+04   3.0002972e+04   3.0002739e+04   3.0002524e+04   3.0002327e+04   3.0002146e+04   3.0001979e+04   3.0001825e+04   3.0001684e+04   3.0001554e+04   3.0001435e+04   3.0001325e+04   3.0001224e+04   3.0001130e+04   3.0001044e+04   3.0000965e+04   3.0000892e+04
3.0072670e+04   3.0078258e+04   3.0083919e+04   3.0089609e+04   3.0095280e+04   3.0100886e+04   3.0106378e+04   3.0111708e+04   3.0116832e+04   3.0121709e+04   3.0126299e+04   3.0130570e+04   3.0134495e+04   3.0138054e+04   3.0141234e+04   3.0144027e+04   3.0146434e+04   3.0148463e+04   3.0150127e+04   3.0151446e+04   3.0152444e+04   3.0153149e+04   3.0153592e+04   3.0153805e+04   3.0153823e+04   3.0153678e+04   3.0153403e+04   3.0153025e+04   3.0152572e+04   3.0152065e+04   3.0151524e+04   3.0150960e+04   3.0150384e+04   3.0149798e+04   3.0149204e+04   3.0148596e+04   3.0147966e+04   3.0147303e+04   3.0146593e+04   3.0145821e+04   3.0144969e+04   3.0144021e+04   3.0142959e+04   3.0141768e+04   3.0140433e+04   3.0138941e+04   3.0137282e+04   3.0135448e+04   3.0133436e+04   3.0131242e+04   3.0128868e+04   3.0126319e+04   3.0123600e+04   3.0120723e+04   3.0117697e+04   3.0114537e+04   3.0111258e+04   3.0107876e+04   3.0104409e+04   3.0100873e+04   3.0097287e+04   3.0093667e+04   3.0090032e+04   3.0086396e+04   3.0082775e+04   3.0079183e+04   3.0075632e+04   3.0072136e+04   3.0068703e+04   3.0065342e+04   3.0062062e+04   3.0058869e+04   3.0055768e+04   3.0052763e+04   3.0049857e+04   3.0047054e+04   3.0044354e+04   3.0041759e+04   3.0039269e+04   3.0036884e+04   3.0034603e+04   3.0032426e+04   3.0030351e+04   3.0028376e+04   3.0026499e+04   3.0024720e+04   3.0023034e+04   3.0021441e+04   3.0019937e+04   3.0018519e+04   3.0017186e+04   3.0015933e+04   3.0014758e+04   3.0013658e+04   3.0012630e+04   3.0011670e+04   3.0010776e+04   3.0009943e+04   3.0009169e+04   3.0008451e+04   3.0007786e+04   3.0007170e+04   3.0006600e+04   3.0006074e+04   3.0005589e+04   3.0005141e+04   3.0004729e+04   3.0004349e+04   3.0004000e+04   3.0003679e+04   3.0003384e+04   3.0003113e+04   3.0002864e+04   3.0002635e+04   3.0002425e+04   3.0002232e+04   3.0002055e+04   3.0001893e+04   3.0001743e+04   3.0001606e+04   3.0001480e+04   3.0001364e+04   3.0001258e+04   3.0001160e+04   3.0001070e+04   3.0000987e+04   3.0000911e+04   3.0000841e+04   3.0000776e+04
3.0067242e+04   3.0072399e+04   3.0077623e+04   3.0082873e+04   3.0088107e+04   3.0093279e+04   3.0098346e+04   3.0103264e+04   3.0107991e+04   3.0112489e+04   3.0116723e+04   3.0120662e+04   3.0124281e+04   3.0127561e+04   3.0130490e+04   3.0133060e+04   3.0135273e+04   3.0137133e+04   3.0138654e+04   3.0139852e+04   3.0140749e+04   3.0141371e+04   3.0141746e+04   3.0141903e+04   3.0141872e+04   3.0141685e+04   3.0141369e+04   3.0140951e+04   3.0140456e+04   3.0139904e+04   3.0139313e+04   3.0138694e+04   3.0138057e+04   3.0137407e+04   3.0136744e+04   3.0136065e+04   3.0135364e+04   3.0134632e+04   3.0133858e+04   3.0133029e+04   3.0132130e+04   3.0131149e+04   3.0130070e+04   3.0128881e+04   3.0127568e+04   3.0126122e+04   3.0124534e+04   3.0122797e+04   3.0120908e+04   3.0118865e+04   3.0116668e+04   3.0114322e+04   3.0111833e+04   3.0109207e+04   3.0106456e+04   3.0103590e+04   3.0100623e+04   3.0097568e+04   3.0094439e+04   3.0091252e+04   3.0088022e+04   3.0084762e+04   3.0081489e+04   3.0078215e+04   3.0074954e+04   3.0071718e+04   3.0068519e+04   3.0065365e+04   3.0062267e+04   3.0059232e+04   3.0056268e+04   3.0053380e+04   3.0050573e+04   3.0047851e+04   3.0045217e+04   3.0042674e+04   3.0040224e+04   3.0037868e+04   3.0035605e+04   3.0033437e+04   3.0031364e+04   3.0029383e+04   3.0027496e+04   3.0025699e+04   3.0023992e+04   3.0022373e+04   3.0020839e+04   3.0019390e+04   3.0018022e+04   3.0016733e+04   3.0015521e+04   3.0014382e+04   3.0013314e+04   3.0012315e+04   3.0011381e+04   3.0010510e+04   3.0009698e+04   3.0008943e+04   3.0008241e+04   3.0007590e+04   3.0006987e+04   3.0006429e+04   3.0005913e+04   3.0005437e+04   3.0004998e+04   3.0004593e+04   3.0004220e+04   3.0003878e+04   3.0003563e+04   3.0003273e+04   3.0003007e+04   3.0002763e+04   3.0002539e+04   3.0002333e+04   3.0002145e+04   3.0001972e+04   3.0001813e+04   3.0001667e+04   3.0001534e+04   3.0001411e+04   3.0001299e+04   3.0001196e+04   3.0001101e+04   3.0001014e+04   3.0000934e+04   3.0000861e+04   3.0000793e+04   3.0000731e+04   3.0000674e+04
3.0062026e+04   3.0066771e+04   3.0071577e+04   3.0076407e+04   3.0081222e+04   3.0085980e+04   3.0090641e+04   3.0095166e+04   3.0099516e+04   3.0103655e+04   3.0107551e+04   3.0111176e+04   3.0114506e+04   3.0117524e+04   3.0120218e+04   3.0122582e+04   3.0124614e+04   3.0126322e+04   3.0127714e+04   3.0128806e+04   3.0129618e+04   3.0130173e+04   3.0130495e+04   3.0130612e+04   3.0130551e+04   3.0130338e+04   3.0130002e+04   3.0129565e+04   3.0129049e+04   3.0128475e+04   3.0127857e+04   3.0127209e+04   3.0126537e+04   3.0125849e+04   3.0125144e+04   3.0124422e+04   3.0123677e+04   3.0122902e+04   3.0122090e+04   3.0121228e+04   3.0120306e+04   3.0119311e+04   3.0118233e+04   3.0117060e+04   3.0115781e+04   3.0114388e+04   3.0112875e+04   3.0111235e+04   3.0109465e+04   3.0107564e+04   3.0105533e+04   3.0103375e+04   3.0101096e+04   3.0098700e+04   3.0096198e+04   3.0093599e+04   3.0090913e+04   3.0088152e+04   3.0085329e+04   3.0082456e+04   3.0079546e+04   3.0076611e+04   3.0073664e+04   3.0070718e+04   3.0067782e+04   3.0064868e+04   3.0061986e+04   3.0059144e+04   3.0056350e+04   3.0053612e+04   3.0050936e+04   3.0048327e+04   3.0045789e+04   3.0043327e+04   3.0040943e+04   3.0038640e+04   3.0036420e+04   3.0034283e+04   3.0032231e+04   3.0030264e+04   3.0028382e+04   3.0026584e+04   3.0024870e+04   3.0023238e+04   3.0021688e+04   3.0020217e+04   3.0018825e+04   3.0017509e+04   3.0016267e+04   3.0015097e+04   3.0013996e+04   3.0012963e+04   3.0011994e+04   3.0011088e+04   3.0010241e+04   3.0009451e+04   3.0008716e+04   3.0008031e+04   3.0007396e+04   3.0006807e+04   3.0006261e+04   3.0005756e+04   3.0005290e+04   3.0004860e+04   3.0004463e+04   3.0004098e+04   3.0003762e+04   3.0003452e+04   3.0003169e+04   3.0002908e+04   3.0002669e+04   3.0002449e+04   3.0002248e+04   3.0002063e+04   3.0001894e+04   3.0001739e+04   3.0001597e+04   3.0001467e+04   3.0001348e+04   3.0001239e+04   3.0001138e+04   3.0001047e+04   3.0000962e+04   3.0000885e+04   3.0000814e+04   3.0000749e+04   3.0000690e+04   3.0000635e+04   3.0000585e+04
3.0057039e+04   3.0061392e+04   3.0065800e+04   3.0070230e+04   3.0074646e+04   3.0079011e+04   3.0083288e+04   3.0087440e+04   3.0091432e+04   3.0095231e+04   3.0098807e+04   3.0102136e+04   3.0105195e+04   3.0107967e+04   3.0110443e+04   3.0112614e+04   3.0114482e+04   3.0116049e+04   3.0117326e+04   3.0118326e+04   3.0119065e+04   3.0119566e+04   3.0119849e+04   3.0119940e+04   3.0119862e+04   3.0119640e+04   3.0119298e+04   3.0118859e+04   3.0118342e+04   3.0117764e+04   3.0117140e+04   3.0116483e+04   3.0115799e+04   3.0115095e+04   3.0114371e+04   3.0113628e+04   3.0112862e+04   3.0112068e+04   3.0111238e+04   3.0110364e+04   3.0109437e+04   3.0108447e+04   3.0107384e+04   3.0106238e+04   3.0105003e+04   3.0103670e+04   3.0102234e+04   3.0100689e+04   3.0099035e+04   3.0097269e+04   3.0095392e+04   3.0093408e+04   3.0091320e+04   3.0089135e+04   3.0086858e+04   3.0084499e+04   3.0082067e+04   3.0079571e+04   3.0077023e+04   3.0074432e+04   3.0071809e+04   3.0069166e+04   3.0066514e+04   3.0063861e+04   3.0061219e+04   3.0058596e+04   3.0056000e+04   3.0053440e+04   3.0050922e+04   3.0048454e+04   3.0046039e+04   3.0043684e+04   3.0041393e+04   3.0039168e+04   3.0037013e+04   3.0034930e+04   3.0032921e+04   3.0030986e+04   3.0029128e+04   3.0027346e+04   3.0025641e+04   3.0024012e+04   3.0022458e+04   3.0020979e+04   3.0019573e+04   3.0018240e+04   3.0016978e+04   3.0015785e+04   3.0014659e+04   3.0013599e+04   3.0012602e+04   3.0011666e+04   3.0010788e+04   3.0009968e+04   3.0009201e+04   3.0008487e+04   3.0007821e+04   3.0007202e+04   3.0006628e+04   3.0006095e+04   3.0005602e+04   3.0005147e+04   3.0004726e+04   3.0004337e+04   3.0003980e+04   3.0003650e+04   3.0003348e+04   3.0003069e+04   3.0002814e+04   3.0002580e+04   3.0002365e+04   3.0002168e+04   3.0001987e+04   3.0001822e+04   3.0001670e+04   3.0001532e+04   3.0001405e+04   3.0001289e+04   3.0001183e+04   3.0001085e+04   3.0000996e+04   3.0000915e+04   3.0000840e+04   3.0000772e+04   3.0000709e+04   3.0000652e+04   3.0000599e+04   3.0000551e+04   3.0000507e+04
3.0052296e+04   3.0056276e+04   3.0060307e+04   3.0064358e+04   3.0068397e+04   3.0072390e+04   3.0076303e+04   3.0080102e+04   3.0083756e+04   3.0087235e+04   3.0090511e+04   3.0093561e+04   3.0096365e+04   3.0098908e+04   3.0101180e+04   3.0103173e+04   3.0104889e+04   3.0106329e+04   3.0107503e+04   3.0108421e+04   3.0109100e+04   3.0109557e+04   3.0109812e+04   3.0109887e+04   3.0109804e+04   3.0109585e+04   3.0109251e+04   3.0108823e+04   3.0108318e+04   3.0107752e+04   3.0107139e+04   3.0106489e+04   3.0105811e+04   3.0105109e+04   3.0104386e+04   3.0103642e+04   3.0102874e+04   3.0102078e+04   3.0101249e+04   3.0100380e+04   3.0099463e+04   3.0098491e+04   3.0097455e+04   3.0096348e+04   3.0095162e+04   3.0093894e+04   3.0092536e+04   3.0091086e+04   3.0089542e+04   3.0087904e+04   3.0086171e+04   3.0084347e+04   3.0082435e+04   3.0080440e+04   3.0078368e+04   3.0076226e+04   3.0074023e+04   3.0071765e+04   3.0069463e+04   3.0067125e+04   3.0064761e+04   3.0062380e+04   3.0059991e+04   3.0057603e+04   3.0055224e+04   3.0052863e+04   3.0050526e+04   3.0048220e+04   3.0045952e+04   3.0043727e+04   3.0041551e+04   3.0039427e+04   3.0037359e+04   3.0035351e+04   3.0033405e+04   3.0031524e+04   3.0029708e+04   3.0027960e+04   3.0026279e+04   3.0024668e+04   3.0023125e+04   3.0021651e+04   3.0020245e+04   3.0018906e+04   3.0017635e+04   3.0016428e+04   3.0015286e+04   3.0014207e+04   3.0013188e+04   3.0012229e+04   3.0011327e+04   3.0010481e+04   3.0009688e+04   3.0008946e+04   3.0008254e+04   3.0007608e+04   3.0007007e+04   3.0006448e+04   3.0005930e+04   3.0005450e+04   3.0005005e+04   3.0004594e+04   3.0004215e+04   3.0003865e+04   3.0003543e+04   3.0003247e+04   3.0002975e+04   3.0002725e+04   3.0002496e+04   3.0002285e+04   3.0002092e+04   3.0001916e+04   3.0001754e+04   3.0001606e+04   3.0001471e+04   3.0001347e+04   3.0001234e+04   3.0001131e+04   3.0001036e+04   3.0000950e+04   3.0000871e+04   3.0000798e+04   3.0000732e+04   3.0000672e+04   3.0000616e+04   3.0000566e+04   3.0000520e+04   3.0000477e+04   3.0000438e+04
3.0047805e+04   3.0051433e+04   3.0055109e+04   3.0058803e+04   3.0062487e+04   3.0066129e+04   3.0069699e+04   3.0073166e+04   3.0076502e+04   3.0079680e+04   3.0082674e+04   3.0085463e+04   3.0088029e+04   3.0090358e+04   3.0092440e+04   3.0094269e+04   3.0095844e+04   3.0097169e+04   3.0098249e+04   3.0099096e+04   3.0099723e+04   3.0100145e+04   3.0100381e+04   3.0100450e+04   3.0100371e+04   3.0100163e+04   3.0099847e+04   3.0099440e+04   3.0098958e+04   3.0098416e+04   3.0097826e+04   3.0097198e+04   3.0096539e+04   3.0095854e+04   3.0095147e+04   3.0094416e+04   3.0093661e+04   3.0092879e+04   3.0092066e+04   3.0091215e+04   3.0090321e+04   3.0089377e+04   3.0088378e+04   3.0087316e+04   3.0086187e+04   3.0084985e+04   3.0083707e+04   3.0082350e+04   3.0080913e+04   3.0079394e+04   3.0077796e+04   3.0076119e+04   3.0074368e+04   3.0072547e+04   3.0070660e+04   3.0068714e+04   3.0066716e+04   3.0064672e+04   3.0062591e+04   3.0060481e+04   3.0058348e+04   3.0056202e+04   3.0054050e+04   3.0051899e+04   3.0049757e+04   3.0047631e+04   3.0045527e+04   3.0043451e+04   3.0041409e+04   3.0039405e+04   3.0037444e+04   3.0035530e+04   3.0033666e+04   3.0031855e+04   3.0030100e+04   3.0028402e+04   3.0026763e+04   3.0025185e+04   3.0023668e+04   3.0022213e+04   3.0020819e+04   3.0019488e+04   3.0018218e+04   3.0017009e+04   3.0015860e+04   3.0014770e+04   3.0013739e+04   3.0012764e+04   3.0011844e+04   3.0010978e+04   3.0010164e+04   3.0009400e+04   3.0008685e+04   3.0008016e+04   3.0007391e+04   3.0006809e+04   3.0006267e+04   3.0005764e+04   3.0005297e+04   3.0004864e+04   3.0004464e+04   3.0004095e+04   3.0003754e+04   3.0003439e+04   3.0003150e+04   3.0002884e+04   3.0002640e+04   3.0002415e+04   3.0002210e+04   3.0002021e+04   3.0001849e+04   3.0001691e+04   3.0001547e+04   3.0001414e+04   3.0001294e+04   3.0001184e+04   3.0001083e+04   3.0000991e+04   3.0000907e+04   3.0000830e+04   3.0000760e+04   3.0000696e+04   3.0000637e+04   3.0000584e+04   3.0000535e+04   3.0000491e+04   3.0000450e+04   3.0000413e+04   3.0000379e+04
3.0043573e+04   3.0046871e+04   3.0050212e+04   3.0053571e+04   3.0056921e+04   3.0060234e+04   3.0063483e+04   3.0066639e+04   3.0069678e+04   3.0072573e+04   3.0075303e+04   3.0077849e+04   3.0080192e+04   3.0082322e+04   3.0084228e+04   3.0085905e+04   3.0087351e+04   3.0088570e+04   3.0089567e+04   3.0090350e+04   3.0090932e+04   3.0091327e+04   3.0091550e+04   3.0091619e+04   3.0091550e+04   3.0091361e+04   3.0091070e+04   3.0090692e+04   3.0090241e+04   3.0089732e+04   3.0089174e+04   3.0088577e+04   3.0087948e+04   3.0087291e+04   3.0086610e+04   3.0085905e+04   3.0085175e+04   3.0084418e+04   3.0083631e+04   3.0082809e+04   3.0081948e+04   3.0081042e+04   3.0080086e+04   3.0079075e+04   3.0078006e+04   3.0076873e+04   3.0075674e+04   3.0074407e+04   3.0073071e+04   3.0071666e+04   3.0070192e+04   3.0068652e+04   3.0067049e+04   3.0065385e+04   3.0063667e+04   3.0061898e+04   3.0060085e+04   3.0058235e+04   3.0056352e+04   3.0054446e+04   3.0052521e+04   3.0050585e+04   3.0048646e+04   3.0046708e+04   3.0044779e+04   3.0042865e+04   3.0040970e+04   3.0039102e+04   3.0037263e+04   3.0035459e+04   3.0033693e+04   3.0031969e+04   3.0030290e+04   3.0028658e+04   3.0027077e+04   3.0025546e+04   3.0024069e+04   3.0022647e+04   3.0021279e+04   3.0019967e+04   3.0018710e+04   3.0017509e+04   3.0016364e+04   3.0015274e+04   3.0014238e+04   3.0013256e+04   3.0012326e+04   3.0011447e+04   3.0010618e+04   3.0009838e+04   3.0009104e+04   3.0008416e+04   3.0007772e+04   3.0007169e+04   3.0006607e+04   3.0006083e+04   3.0005596e+04   3.0005143e+04   3.0004724e+04   3.0004335e+04   3.0003975e+04   3.0003643e+04   3.0003337e+04   3.0003055e+04   3.0002796e+04   3.0002557e+04   3.0002338e+04   3.0002138e+04   3.0001954e+04   3.0001785e+04   3.0001631e+04   3.0001490e+04   3.0001361e+04   3.0001244e+04   3.0001136e+04   3.0001038e+04   3.0000949e+04   3.0000867e+04   3.0000792e+04   3.0000724e+04   3.0000662e+04   3.0000606e+04   3.0000554e+04   3.0000507e+04   3.0000464e+04   3.0000425e+04   3.0000389e+04   3.0000356e+04   3.0000327e+04
