2.7914027e+04   2.7684299e+04   2.7438171e+04   2.7176374e+04   2.6900007e+04   2.6610547e+04   2.6309860e+04   2.6000193e+04   2.5684150e+04   2.5364666e+04   2.5044955e+04   2.4728457e+04   2.4418763e+04   2.4119539e+04   2.3834435e+04   2.3566996e+04   2.3320569e+04   2.3098208e+04   2.2902591e+04   2.2735944e+04   2.2599971e+04   2.2495809e+04   2.2423990e+04   2.2384425e+04   2.2376410e+04   2.2398644e+04   2.2449267e+04   2.2525920e+04   2.2625809e+04   2.2745787e+04   2.2882439e+04   2.3032179e+04   2.3191337e+04   2.3356252e+04   2.3523359e+04   2.3689265e+04   2.3850813e+04   2.4005144e+04   2.4149735e+04   2.4282430e+04   2.4401459e+04   2.4505441e+04   2.4593381e+04   2.4664650e+04   2.4718963e+04   2.4756352e+04   2.4777125e+04   2.4781834e+04   2.4771231e+04   2.4746234e+04   2.4707882e+04   2.4657306e+04   2.4595689e+04   2.4524240e+04   2.4444167e+04   2.4356650e+04   2.4262829e+04   2.4163778e+04   2.4060502e+04   2.3953921e+04   2.3844867e+04   2.3734081e+04   2.3622205e+04   2.3509792e+04   2.3397302e+04   2.3285109e+04   2.3173509e+04   2.3062722e+04   2.2952908e+04   2.2844167e+04   2.2736560e+04   2.2630109e+04   2.2524815e+04   2.2420664e+04   2.2317638e+04   2.2215724e+04   2.2114923e+04   2.2015256e+04   2.1916772e+04   2.1819551e+04   2.1723706e+04   2.1629389e+04   2.1536788e+04   2.1446130e+04   2.1357673e+04   2.1271713e+04   2.1188571e+04   2.1108594e+04   2.1032150e+04   2.0959622e+04   2.0891403e+04   2.0827891e+04   2.0769485e+04   2.0716579e+04   2.0669558e+04   2.0628794e+04   2.0594641e+04   2.0567435e+04   2.0547489e+04   2.0535088e+04   2.0530493e+04   2.0533933e+04   2.0545607e+04   2.0565684e+04   2.0594298e+04   2.0631551e+04   2.0677510e+04   2.0732208e+04   2.0795643e+04   2.0867781e+04   2.0948550e+04   2.1037845e+04   2.1135529e+04   2.1241428e+04   2.1355339e+04   2.1477024e+04   2.1606215e+04   2.1742615e+04   2.1885898e+04   2.2035710e+04   2.2191673e+04   2.2353386e+04   2.2520426e+04   2.2692352e+04   2.2868705e+04   2.3049013e+04   2.3232793e+04   2.3419553e+04   2.3608797e+04
2.7885146e+04   2.7652127e+04   2.7402496e+04   2.7136992e+04   2.6856730e+04   2.6563207e+04   2.6258312e+04   2.5944318e+04   2.5623862e+04   2.5299912e+04   2.4975721e+04   2.4654769e+04   2.4340689e+04   2.4037187e+04   2.3747957e+04   2.3476582e+04   2.3226446e+04   2.3000638e+04   2.2801866e+04   2.2632379e+04   2.2493900e+04   2.2387576e+04   2.2313945e+04   2.2272916e+04   2.2263773e+04   2.2285199e+04   2.2335310e+04   2.2411718e+04   2.2511592e+04   2.2631746e+04   2.2768722e+04   2.2918886e+04   2.3078521e+04   2.3243918e+04   2.3411462e+04   2.3577713e+04   2.3739473e+04   2.3893840e+04   2.4038256e+04   2.4170534e+04   2.4288879e+04   2.4391894e+04   2.4478572e+04   2.4548281e+04   2.4600742e+04   2.4636000e+04   2.4654387e+04   2.4656485e+04   2.4643084e+04   2.4615149e+04   2.4573773e+04   2.4520146e+04   2.4455517e+04   2.4381165e+04   2.4298368e+04   2.4208382e+04   2.4112418e+04   2.4011622e+04   2.3907064e+04   2.3799728e+04   2.3690500e+04   2.3580165e+04   2.3469402e+04   2.3358790e+04   2.3248801e+04   2.3139813e+04   2.3032109e+04   2.2925889e+04   2.2821279e+04   2.2718337e+04   2.2617070e+04   2.2517443e+04   2.2419389e+04   2.2322826e+04   2.2227662e+04   2.2133813e+04   2.2041206e+04   2.1949795e+04   2.1859561e+04   2.1770524e+04   2.1682742e+04   2.1596318e+04   2.1511400e+04   2.1428179e+04   2.1346889e+04   2.1267801e+04   2.1191226e+04   2.1117502e+04   2.1046993e+04   2.0980086e+04   2.0917178e+04   2.0858676e+04   2.0804991e+04   2.0756528e+04   2.0713685e+04   2.0676850e+04   2.0646389e+04   2.0622652e+04   2.0605964e+04   2.0596622e+04   2.0594896e+04   2.0601025e+04   2.0615217e+04   2.0637645e+04   2.0668450e+04   2.0707737e+04   2.0755576e+04   2.0812004e+04   2.0877021e+04   2.0950591e+04   2.1032646e+04   2.1123080e+04   2.1221756e+04   2.1328502e+04   2.1443113e+04   2.1565352e+04   2.1694953e+04   2.1831619e+04   2.1975026e+04   2.2124821e+04   2.2280629e+04   2.2442051e+04   2.2608667e+04   2.2780039e+04   2.2955713e+04   2.3135222e+04   2.3318086e+04   2.3503820e+04   2.3691931e+04
2.7858041e+04   2.7622003e+04   2.7369165e+04   2.7100279e+04   2.6816469e+04   2.6519251e+04   2.6210533e+04   2.5892614e+04   2.5568156e+04   2.5240158e+04   2.4911905e+04   2.4586911e+04   2.4268842e+04   2.3961441e+04   2.3668436e+04   2.3393444e+04   2.3139880e+04   2.2910860e+04   2.2709116e+04   2.2536917e+04   2.2396001e+04   2.2287525e+04   2.2212027e+04   2.2169413e+04   2.2158959e+04   2.2179332e+04   2.2228627e+04   2.2304428e+04   2.2403874e+04   2.2523743e+04   2.2660539e+04   2.2810585e+04   2.2970121e+04   2.3135395e+04   2.3302748e+04   2.3468699e+04   2.3630008e+04   2.3783737e+04   2.3927293e+04   2.4058464e+04   2.4175430e+04   2.4276778e+04   2.4361492e+04   2.4428940e+04   2.4478849e+04   2.4511280e+04   2.4526589e+04   2.4525391e+04   2.4508520e+04   2.4476990e+04   2.4431955e+04   2.4374668e+04   2.4306452e+04   2.4228661e+04   2.4142655e+04   2.4049769e+04   2.3951296e+04   2.3848462e+04   2.3742413e+04   2.3634199e+04   2.3524768e+04   2.3414956e+04   2.3305485e+04   2.3196958e+04   2.3089866e+04   2.2984585e+04   2.2881388e+04   2.2780449e+04   2.2681855e+04   2.2585616e+04   2.2491677e+04   2.2399935e+04   2.2310248e+04   2.2222452e+04   2.2136373e+04   2.2051842e+04   2.1968704e+04   2.1886831e+04   2.1806129e+04   2.1726546e+04   2.1648079e+04   2.1570773e+04   2.1494727e+04   2.1420094e+04   2.1347073e+04   2.1275915e+04   2.1206911e+04   2.1140391e+04   2.1076715e+04   2.1016270e+04   2.0959461e+04   2.0906703e+04   2.0858418e+04   2.0815026e+04   2.0776940e+04   2.0744562e+04   2.0718276e+04   2.0698445e+04   2.0685406e+04   2.0679473e+04   2.0680924e+04   2.0690011e+04   2.0706948e+04   2.0731918e+04   2.0765066e+04   2.0806503e+04   2.0856303e+04   2.0914506e+04   2.0981113e+04   2.1056091e+04   2.1139372e+04   2.1230852e+04   2.1330395e+04   2.1437828e+04   2.1552949e+04   2.1675523e+04   2.1805283e+04   2.1941935e+04   2.2085157e+04   2.2234601e+04   2.2389893e+04   2.2550639e+04   2.2716424e+04   2.2886815e+04   2.3061362e+04   2.3239605e+04   2.3421072e+04   2.3605282e+04   2.3791753e+04
2.7832601e+04   2.7593813e+04   2.7338064e+04   2.7066115e+04   2.6779102e+04   2.6478557e+04   2.6166404e+04   2.5844962e+04   2.5516916e+04   2.5185289e+04   2.4853394e+04   2.4524771e+04   2.4203116e+04   2.3892198e+04   2.3595774e+04   2.3317488e+04   2.3060777e+04   2.2828782e+04   2.2624252e+04   2.2449471e+04   2.2306187e+04   2.2195563e+04   2.2118140e+04   2.2073818e+04   2.2061865e+04   2.2080932e+04   2.2129098e+04   2.2203921e+04   2.2302515e+04   2.2421626e+04   2.2557722e+04   2.2707093e+04   2.2865939e+04   2.3030470e+04   2.3196989e+04   2.3361975e+04   2.3522152e+04   2.3674550e+04   2.3816545e+04   2.3945898e+04   2.4060770e+04   2.4159734e+04   2.4241764e+04   2.4306230e+04   2.4352868e+04   2.4381755e+04   2.4393275e+04   2.4388079e+04   2.4367047e+04   2.4331248e+04   2.4281899e+04   2.4220326e+04   2.4147929e+04   2.4066147e+04   2.3976427e+04   2.3880196e+04   2.3778833e+04   2.3673654e+04   2.3565886e+04   2.3456658e+04   2.3346984e+04   2.3237758e+04   2.3129746e+04   2.3023582e+04   2.2919774e+04   2.2818700e+04   2.2720617e+04   2.2625671e+04   2.2533905e+04   2.2445273e+04   2.2359652e+04   2.2276860e+04   2.2196670e+04   2.2118826e+04   2.2043060e+04   2.1969108e+04   2.1896719e+04   2.1825674e+04   2.1755793e+04   2.1686943e+04   2.1619048e+04   2.1552090e+04   2.1486113e+04   2.1421221e+04   2.1357580e+04   2.1295411e+04   2.1234986e+04   2.1176622e+04   2.1120676e+04   2.1067535e+04   2.1017609e+04   2.0971325e+04   2.0929117e+04   2.0891420e+04   2.0858663e+04   2.0831265e+04   2.0809628e+04   2.0794129e+04   2.0785125e+04   2.0782940e+04   2.0787868e+04   2.0800170e+04   2.0820072e+04   2.0847764e+04   2.0883399e+04   2.0927093e+04   2.0978926e+04   2.1038939e+04   2.1107138e+04   2.1183492e+04   2.1267934e+04   2.1360363e+04   2.1460642e+04   2.1568602e+04   2.1684042e+04   2.1806727e+04   2.1936396e+04   2.2072756e+04   2.2215489e+04   2.2364250e+04   2.2518671e+04   2.2678363e+04   2.2842917e+04   2.3011906e+04   2.3184888e+04   2.3361411e+04   2.3541009e+04   2.3723213e+04   2.3907547e+04
2.7808689e+04   2.7567412e+04   2.7309042e+04   2.7034346e+04   2.6744472e+04   2.6440962e+04   2.6125758e+04   2.5801192e+04   2.5469970e+04   2.5135134e+04   2.4800016e+04   2.4468178e+04   2.4143337e+04   2.3829286e+04   2.3529800e+04   2.3248542e+04   2.2988970e+04   2.2754237e+04   2.2547107e+04   2.2369873e+04   2.2224290e+04   2.2111525e+04   2.2032115e+04   2.1985959e+04   2.1972314e+04   2.1989820e+04   2.2036538e+04   2.2110009e+04   2.2207319e+04   2.2325190e+04   2.2460062e+04   2.2608193e+04   2.2765750e+04   2.2928909e+04   2.3093941e+04   2.3257290e+04   2.3415650e+04   2.3566017e+04   2.3705744e+04   2.3832566e+04   2.3944626e+04   2.4040485e+04   2.4119111e+04   2.4179875e+04   2.4222524e+04   2.4247154e+04   2.4254179e+04   2.4244287e+04   2.4218409e+04   2.4177672e+04   2.4123362e+04   2.4056883e+04   2.3979720e+04   2.3893401e+04   2.3799471e+04   2.3699452e+04   2.3594823e+04   2.3486995e+04   2.3377286e+04   2.3266908e+04   2.3156950e+04   2.3048369e+04   2.2941978e+04   2.2838448e+04   2.2738303e+04   2.2641922e+04   2.2549547e+04   2.2461291e+04   2.2377148e+04   2.2297008e+04   2.2220674e+04   2.2147876e+04   2.2078290e+04   2.2011561e+04   2.1947313e+04   2.1885175e+04   2.1824793e+04   2.1765842e+04   2.1708048e+04   2.1651187e+04   2.1595100e+04   2.1539699e+04   2.1484964e+04   2.1430949e+04   2.1377777e+04   2.1325637e+04   2.1274779e+04   2.1225507e+04   2.1178171e+04   2.1133158e+04   2.1090886e+04   2.1051790e+04   2.1016318e+04   2.0984924e+04   2.0958053e+04   2.0936142e+04   2.0919613e+04   2.0908862e+04   2.0904260e+04   2.0906150e+04   2.0914839e+04   2.0930601e+04   2.0953674e+04   2.0984257e+04   2.1022510e+04   2.1068557e+04   2.1122483e+04   2.1184334e+04   2.1254119e+04   2.1331809e+04   2.1417341e+04   2.1510615e+04   2.1611497e+04   2.1719820e+04   2.1835385e+04   2.1957962e+04   2.2087291e+04   2.2223084e+04   2.2365027e+04   2.2512781e+04   2.2665984e+04   2.2824253e+04   2.2987187e+04   2.3154366e+04   2.3325359e+04   2.3499720e+04   2.3676996e+04   2.3856727e+04   2.4038448e+04
2.7786140e+04   2.7542628e+04   2.7281917e+04   2.7004782e+04   2.6712379e+04   2.6406261e+04   2.6088382e+04   2.5761086e+04   2.5427094e+04   2.5089461e+04   2.4751535e+04   2.4416893e+04   2.4089267e+04   2.3772463e+04   2.3470270e+04   2.3186365e+04   2.2924213e+04   2.2686980e+04   2.2477436e+04   2.2297879e+04   2.2150066e+04   2.2035164e+04   2.1953709e+04   2.1905592e+04   2.1890063e+04   2.1905751e+04   2.1950703e+04   2.2022442e+04   2.2118038e+04   2.2234188e+04   2.2367310e+04   2.2513635e+04   2.2669305e+04   2.2830468e+04   2.2993363e+04   2.3154409e+04   2.3310269e+04   2.3457916e+04   2.3594676e+04   2.3718265e+04   2.3826812e+04   2.3918863e+04   2.3993385e+04   2.4049750e+04   2.4087719e+04   2.4107407e+04   2.4109260e+04   2.4094008e+04   2.4062633e+04   2.4016326e+04   2.3956446e+04   2.3884478e+04   2.3801999e+04   2.3710635e+04   2.3612031e+04   2.3507816e+04   2.3399575e+04   2.3288819e+04   2.3176967e+04   2.3065321e+04   2.2955050e+04   2.2847178e+04   2.2742572e+04   2.2641940e+04   2.2545824e+04   2.2454604e+04   2.2368506e+04   2.2287605e+04   2.2211843e+04   2.2141041e+04   2.2074917e+04   2.2013106e+04   2.1955181e+04   2.1900672e+04   2.1849090e+04   2.1799944e+04   2.1752765e+04   2.1707117e+04   2.1662616e+04   2.1618941e+04   2.1575843e+04   2.1533154e+04   2.1490784e+04   2.1448731e+04   2.1407071e+04   2.1365956e+04   2.1325613e+04   2.1286329e+04   2.1248447e+04   2.1212353e+04   2.1178471e+04   2.1147247e+04   2.1119145e+04   2.1094634e+04   2.1074180e+04   2.1058241e+04   2.1047257e+04   2.1041645e+04   2.1041795e+04   2.1048066e+04   2.1060783e+04   2.1080233e+04   2.1106666e+04   2.1140292e+04   2.1181281e+04   2.1229764e+04   2.1285832e+04   2.1349537e+04   2.1420891e+04   2.1499870e+04   2.1586413e+04   2.1680425e+04   2.1781773e+04   2.1890294e+04   2.2005792e+04   2.2128041e+04   2.2256785e+04   2.2391742e+04   2.2532603e+04   2.2679035e+04   2.2830683e+04   2.2987173e+04   2.3148111e+04   2.3313089e+04   2.3481684e+04   2.3653463e+04   2.3827982e+04   2.4004795e+04   2.4183448e+04
2.7764763e+04   2.7519259e+04   2.7256475e+04   2.6977195e+04   2.6682585e+04   2.6374204e+04   2.6054016e+04   2.5724374e+04   2.5388009e+04   2.5047985e+04   2.4707660e+04   2.4370618e+04   2.4040600e+04   2.3721420e+04   2.3416872e+04   2.3130638e+04   2.2866190e+04   2.2626693e+04   2.2414920e+04   2.2233169e+04   2.2083197e+04   2.1966164e+04   2.1882604e+04   2.1832403e+04   2.1814801e+04   2.1828417e+04   2.1871288e+04   2.1940923e+04   2.2034376e+04   2.2148331e+04   2.2279184e+04   2.2423148e+04   2.2576344e+04   2.2734895e+04   2.2895019e+04   2.3053112e+04   2.3205812e+04   2.3350071e+04   2.3483195e+04   2.3602882e+04   2.3707247e+04   2.3794828e+04   2.3864588e+04   2.3915907e+04   2.3948556e+04   2.3962675e+04   2.3958740e+04   2.3937526e+04   2.3900071e+04   2.3847631e+04   2.3781640e+04   2.3703672e+04   2.3615398e+04   2.3518547e+04   2.3414874e+04   2.3306116e+04   2.3193972e+04   2.3080062e+04   2.2965909e+04   2.2852911e+04   2.2742323e+04   2.2635240e+04   2.2532588e+04   2.2435112e+04   2.2343375e+04   2.2257759e+04   2.2178468e+04   2.2105541e+04   2.2038860e+04   2.1978173e+04   2.1923109e+04   2.1873198e+04   2.1827901e+04   2.1786628e+04   2.1748763e+04   2.1713691e+04   2.1680814e+04   2.1649577e+04   2.1619480e+04   2.1590095e+04   2.1561074e+04   2.1532162e+04   2.1503197e+04   2.1474111e+04   2.1444929e+04   2.1415767e+04   2.1386820e+04   2.1358359e+04   2.1330716e+04   2.1304279e+04   2.1279476e+04   2.1256765e+04   2.1236623e+04   2.1219540e+04   2.1206000e+04   2.1196484e+04   2.1191452e+04   2.1191343e+04   2.1196568e+04   2.1207504e+04   2.1224492e+04   2.1247837e+04   2.1277800e+04   2.1314605e+04   2.1358431e+04   2.1409418e+04   2.1467664e+04   2.1533227e+04   2.1606124e+04   2.1686337e+04   2.1773808e+04   2.1868444e+04   2.1970119e+04   2.2078673e+04   2.2193912e+04   2.2315617e+04   2.2443537e+04   2.2577395e+04   2.2716890e+04   2.2861695e+04   2.3011466e+04   2.3165835e+04   2.3324421e+04   2.3486824e+04   2.3652635e+04   2.3821431e+04   2.3992784e+04   2.4166258e+04   2.4341415e+04
2.7744345e+04   2.7497072e+04   2.7232470e+04   2.6951327e+04   2.6654815e+04   2.6344502e+04   2.6022357e+04   2.5690741e+04   2.5352387e+04   2.5010366e+04   2.4668039e+04   2.4328992e+04   2.3996968e+04   2.3675781e+04   2.3369224e+04   2.3080978e+04   2.2814510e+04   2.2572984e+04   2.2359168e+04   2.2175353e+04   2.2023291e+04   2.1904138e+04   2.1818419e+04   2.1766013e+04   2.1746154e+04   2.1757452e+04   2.1797935e+04   2.1865102e+04   2.1956000e+04   2.2067296e+04   2.2195378e+04   2.2336442e+04   2.2486595e+04   2.2641945e+04   2.2798692e+04   2.2953211e+04   2.3102127e+04   2.3242371e+04   2.3371234e+04   2.3486399e+04   2.3585971e+04   2.3668481e+04   2.3732893e+04   2.3778591e+04   2.3805361e+04   2.3813369e+04   2.3803123e+04   2.3775444e+04   2.3731425e+04   2.3672390e+04   2.3599855e+04   2.3515480e+04   2.3421037e+04   2.3318362e+04   2.3209319e+04   2.3095765e+04   2.2979513e+04   2.2862298e+04   2.2745751e+04   2.2631371e+04   2.2520502e+04   2.2414317e+04   2.2313798e+04   2.2219733e+04   2.2132705e+04   2.2053098e+04   2.1981094e+04   2.1916692e+04   2.1859713e+04   2.1809827e+04   2.1766566e+04   2.1729354e+04   2.1697530e+04   2.1670378e+04   2.1647149e+04   2.1627092e+04   2.1609480e+04   2.1593625e+04   2.1578905e+04   2.1564777e+04   2.1550792e+04   2.1536600e+04   2.1521958e+04   2.1506731e+04   2.1490891e+04   2.1474507e+04   2.1457747e+04   2.1440860e+04   2.1424168e+04   2.1408055e+04   2.1392955e+04   2.1379337e+04   2.1367695e+04   2.1358534e+04   2.1352363e+04   2.1349680e+04   2.1350972e+04   2.1356698e+04   2.1367290e+04   2.1383145e+04   2.1404624e+04   2.1432046e+04   2.1465689e+04   2.1505788e+04   2.1552535e+04   2.1606078e+04   2.1666524e+04   2.1733937e+04   2.1808342e+04   2.1889725e+04   2.1978032e+04   2.2073177e+04   2.2175037e+04   2.2283457e+04   2.2398249e+04   2.2519199e+04   2.2646062e+04   2.2778568e+04   2.2916424e+04   2.3059314e+04   2.3206899e+04   2.3358824e+04   2.3514719e+04   2.3674197e+04   2.3836859e+04   2.4002299e+04   2.4170101e+04   2.4339846e+04   2.4511110e+04
2.7724646e+04   2.7475814e+04   2.7209628e+04   2.6926884e+04   2.6628759e+04   2.6316828e+04   2.5993061e+04   2.5659824e+04   2.5319851e+04   2.4976212e+04   2.4632267e+04   2.4291598e+04   2.3957943e+04   2.3635108e+04   2.3326881e+04   2.3036931e+04   2.2768718e+04   2.2525395e+04   2.2309718e+04   2.2123970e+04   2.1969893e+04   2.1848632e+04   2.1760706e+04   2.1705984e+04   2.1683693e+04   2.1692438e+04   2.1730239e+04   2.1794592e+04   2.1882535e+04   2.1990732e+04   2.2115563e+04   2.2253216e+04   2.2399790e+04   2.2551382e+04   2.2704183e+04   2.2854556e+04   2.2999111e+04   2.3134769e+04   2.3258808e+04   2.3368903e+04   2.3463147e+04   2.3540072e+04   2.3598640e+04   2.3638245e+04   2.3658688e+04   2.3660158e+04   2.3643200e+04   2.3608680e+04   2.3557748e+04   2.3491797e+04   2.3412421e+04   2.3321375e+04   2.3220527e+04   2.3111824e+04   2.2997245e+04   2.2878764e+04   2.2758312e+04   2.2637741e+04   2.2518795e+04   2.2403076e+04   2.2292019e+04   2.2186873e+04   2.2088684e+04   2.1998280e+04   2.1916267e+04   2.1843027e+04   2.1778725e+04   2.1723314e+04   2.1676555e+04   2.1638034e+04   2.1607186e+04   2.1583322e+04   2.1565658e+04   2.1553344e+04   2.1545494e+04   2.1541220e+04   2.1539652e+04   2.1539970e+04   2.1541424e+04   2.1543351e+04   2.1545193e+04   2.1546502e+04   2.1546951e+04   2.1546334e+04   2.1544561e+04   2.1541660e+04   2.1537762e+04   2.1533094e+04   2.1527966e+04   2.1522758e+04   2.1517908e+04   2.1513894e+04   2.1511224e+04   2.1510424e+04   2.1512021e+04   2.1516538e+04   2.1524482e+04   2.1536336e+04   2.1552554e+04   2.1573553e+04   2.1599713e+04   2.1631371e+04   2.1668820e+04   2.1712309e+04   2.1762041e+04   2.1818176e+04   2.1880830e+04   2.1950074e+04   2.2025940e+04   2.2108421e+04   2.2197469e+04   2.2293003e+04   2.2394905e+04   2.2503026e+04   2.2617186e+04   2.2737175e+04   2.2862757e+04   2.2993670e+04   2.3129629e+04   2.3270326e+04   2.3415436e+04   2.3564615e+04   2.3717504e+04   2.3873729e+04   2.4032907e+04   2.4194645e+04   2.4358543e+04   2.4524199e+04   2.4691205e+04
2.7705407e+04   2.7455204e+04   2.7187649e+04   2.6903546e+04   2.6604076e+04   2.6290818e+04   2.5965745e+04   2.5631221e+04   2.5289979e+04   2.4945085e+04   2.4599888e+04   2.4257965e+04   2.3923040e+04   2.3598907e+04   2.3289337e+04   2.2997987e+04   2.2728297e+04   2.2483404e+04   2.2266050e+04   2.2078501e+04   2.1922485e+04   2.1799136e+04   2.1708961e+04   2.1651821e+04   2.1626938e+04   2.1632909e+04   2.1667754e+04   2.1728966e+04   2.1813582e+04   2.1918266e+04   2.2039397e+04   2.2173163e+04   2.2315661e+04   2.2462985e+04   2.2611322e+04   2.2757031e+04   2.2896715e+04   2.3027288e+04   2.3146021e+04   2.3250583e+04   2.3339065e+04   2.3409995e+04   2.3462341e+04   2.3495505e+04   2.3509306e+04   2.3503957e+04   2.3480038e+04   2.3438460e+04   2.3380431e+04   2.3307410e+04   2.3221071e+04   2.3123259e+04   2.3015943e+04   2.2901177e+04   2.2781053e+04   2.2657663e+04   2.2533058e+04   2.2409207e+04   2.2287964e+04   2.2171035e+04   2.2059948e+04   2.1956029e+04   2.1860385e+04   2.1773888e+04   2.1697164e+04   2.1630596e+04   2.1574328e+04   2.1528271e+04   2.1492122e+04   2.1465385e+04   2.1447395e+04   2.1437349e+04   2.1434337e+04   2.1437375e+04   2.1445438e+04   2.1457495e+04   2.1472535e+04   2.1489601e+04   2.1507812e+04   2.1526382e+04   2.1544641e+04   2.1562041e+04   2.1578166e+04   2.1592736e+04   2.1605601e+04   2.1616737e+04   2.1626241e+04   2.1634313e+04   2.1641250e+04   2.1647426e+04   2.1653279e+04   2.1659297e+04   2.1666002e+04   2.1673935e+04   2.1683644e+04   2.1695674e+04   2.1710553e+04   2.1728788e+04   2.1750853e+04   2.1777188e+04   2.1808191e+04   2.1844217e+04   2.1885575e+04   2.1932528e+04   2.1985293e+04   2.2044040e+04   2.2108895e+04   2.2179939e+04   2.2257211e+04   2.2340711e+04   2.2430399e+04   2.2526200e+04   2.2628002e+04   2.2735663e+04   2.2849009e+04   2.2967840e+04   2.3091927e+04   2.3221016e+04   2.3354833e+04   2.3493082e+04   2.3635448e+04   2.3781599e+04   2.3931190e+04   2.4083863e+04   2.4239248e+04   2.4396970e+04   2.4556644e+04   2.4717885e+04   2.4880304e+04
2.7686352e+04   2.7434943e+04   2.7166211e+04   2.6880965e+04   2.6580395e+04   2.6266079e+04   2.5939991e+04   2.5604493e+04   2.5262311e+04   2.4916501e+04   2.4570403e+04   2.4227576e+04   2.3891727e+04   2.3566631e+04   2.3256037e+04   2.2963577e+04   2.2692672e+04   2.2446435e+04   2.2227584e+04   2.2038368e+04   2.1880495e+04   2.1755085e+04   2.1662630e+04   2.1602985e+04   2.1575363e+04   2.1578362e+04   2.1609998e+04   2.1667768e+04   2.1748714e+04   2.1849505e+04   2.1966526e+04   2.2095973e+04   2.2233946e+04   2.2376547e+04   2.2519965e+04   2.2660561e+04   2.2794939e+04   2.2920013e+04   2.3033052e+04   2.3131725e+04   2.3214122e+04   2.3278774e+04   2.3324656e+04   2.3351179e+04   2.3358180e+04   2.3345898e+04   2.3314945e+04   2.3266278e+04   2.3201157e+04   2.3121109e+04   2.3027884e+04   2.2923413e+04   2.2809761e+04   2.2689087e+04   2.2563595e+04   2.2435490e+04   2.2306938e+04   2.2180023e+04   2.2056708e+04   2.1938799e+04   2.1827915e+04   2.1725460e+04   2.1632599e+04   2.1550245e+04   2.1479048e+04   2.1419391e+04   2.1371397e+04   2.1334934e+04   2.1309639e+04   2.1294932e+04   2.1290053e+04   2.1294085e+04   2.1305994e+04   2.1324663e+04   2.1348928e+04   2.1377616e+04   2.1409577e+04   2.1443717e+04   2.1479022e+04   2.1514585e+04   2.1549621e+04   2.1583482e+04   2.1615661e+04   2.1645802e+04   2.1673691e+04   2.1699254e+04   2.1722546e+04   2.1743742e+04   2.1763120e+04   2.1781045e+04   2.1797956e+04   2.1814346e+04   2.1830747e+04   2.1847715e+04   2.1865819e+04   2.1885620e+04   2.1907671e+04   2.1932497e+04   2.1960596e+04   2.1992425e+04   2.2028403e+04   2.2068903e+04   2.2114250e+04   2.2164722e+04   2.2220550e+04   2.2281914e+04   2.2348952e+04   2.2421755e+04   2.2500370e+04   2.2584805e+04   2.2675028e+04   2.2770972e+04   2.2872532e+04   2.2979575e+04   2.3091934e+04   2.3209417e+04   2.3331806e+04   2.3458856e+04   2.3590305e+04   2.3725866e+04   2.3865239e+04   2.4008106e+04   2.4154135e+04   2.4302984e+04   2.4454300e+04   2.4607722e+04   2.4762886e+04   2.4919424e+04   2.5076965e+04
2.7667189e+04   2.7414714e+04   2.7144970e+04   2.6858775e+04   2.6557321e+04   2.6242190e+04   2.5915353e+04   2.5579168e+04   2.5236351e+04   2.4889945e+04   2.4543272e+04   2.4199872e+04   2.3863428e+04   2.3537688e+04   2.3226374e+04   2.2933090e+04   2.2661224e+04   2.2413863e+04   2.2193697e+04   2.2002949e+04   2.1843306e+04   2.1715869e+04   2.1621118e+04   2.1558895e+04   2.1528409e+04   2.1528257e+04   2.1556459e+04   2.1610519e+04   2.1687487e+04   2.1784044e+04   2.1896591e+04   2.2021335e+04   2.2154393e+04   2.2291878e+04   2.2429991e+04   2.2565103e+04   2.2693828e+04   2.2813085e+04   2.2920149e+04   2.3012692e+04   2.3088810e+04   2.3147041e+04   2.3186367e+04   2.3206212e+04   2.3206430e+04   2.3187284e+04   2.3149421e+04   2.3093836e+04   2.3021841e+04   2.2935024e+04   2.2835206e+04   2.2724400e+04   2.2604762e+04   2.2478547e+04   2.2348063e+04   2.2215624e+04   2.2083506e+04   2.1953898e+04   2.1828868e+04   2.1710317e+04   2.1599951e+04   2.1499246e+04   2.1409425e+04   2.1331441e+04   2.1265964e+04   2.1213380e+04   2.1173791e+04   2.1147026e+04   2.1132662e+04   2.1130044e+04   2.1138316e+04   2.1156453e+04   2.1183302e+04   2.1217618e+04   2.1258104e+04   2.1303450e+04   2.1352370e+04   2.1403634e+04   2.1456102e+04   2.1508746e+04   2.1560669e+04   2.1611121e+04   2.1659507e+04   2.1705393e+04   2.1748498e+04   2.1788696e+04   2.1826001e+04   2.1860556e+04   2.1892618e+04   2.1922541e+04   2.1950759e+04   2.1977766e+04   2.2004104e+04   2.2030341e+04   2.2057058e+04   2.2084837e+04   2.2114247e+04   2.2145834e+04   2.2180115e+04   2.2217567e+04   2.2258627e+04   2.2303683e+04   2.2353079e+04   2.2407107e+04   2.2466011e+04   2.2529985e+04   2.2599176e+04   2.2673687e+04   2.2753575e+04   2.2838857e+04   2.2929510e+04   2.3025473e+04   2.3126654e+04   2.3232925e+04   2.3344130e+04   2.3460088e+04   2.3580588e+04   2.3705399e+04   2.3834269e+04   2.3966926e+04   2.4103081e+04   2.4242432e+04   2.4384663e+04   2.4529446e+04   2.4676446e+04   2.4825322e+04   2.4975725e+04   2.5127308e+04   2.5279719e+04
2.7647615e+04   2.7394187e+04   2.7123570e+04   2.6836589e+04   2.6534442e+04   2.6218710e+04   2.5891364e+04   2.5554751e+04   2.5211577e+04   2.4864868e+04   2.4517925e+04   2.4174261e+04   2.3837531e+04   2.3511451e+04   2.3199709e+04   2.2905871e+04   2.2633293e+04   2.2385024e+04   2.2163723e+04   2.1971582e+04   2.1810264e+04   2.1680846e+04   2.1583793e+04   2.1518938e+04   2.1485486e+04   2.1482032e+04   2.1506605e+04   2.1556719e+04   2.1629441e+04   2.1721470e+04   2.1829227e+04   2.1948942e+04   2.2076754e+04   2.2208799e+04   2.2341298e+04   2.2470641e+04   2.2593459e+04   2.2706683e+04   2.2807604e+04   2.2893902e+04   2.2963685e+04   2.3015498e+04   2.3048336e+04   2.3061638e+04   2.3055274e+04   2.3029530e+04   2.2985083e+04   2.2922965e+04   2.2844534e+04   2.2751432e+04   2.2645545e+04   2.2528957e+04   2.2403906e+04   2.2272735e+04   2.2137847e+04   2.2001652e+04   2.1866525e+04   2.1734754e+04   2.1608500e+04   2.1489755e+04   2.1380301e+04   2.1281681e+04   2.1195173e+04   2.1121767e+04   2.1062152e+04   2.1016717e+04   2.0985546e+04   2.0968433e+04   2.0964900e+04   2.0974221e+04   2.0995454e+04   2.1027474e+04   2.1069018e+04   2.1118721e+04   2.1175161e+04   2.1236900e+04   2.1302522e+04   2.1370674e+04   2.1440091e+04   2.1509630e+04   2.1578286e+04   2.1645211e+04   2.1709723e+04   2.1771307e+04   2.1829620e+04   2.1884479e+04   2.1935854e+04   2.1983853e+04   2.2028709e+04   2.2070759e+04   2.2110428e+04   2.2148209e+04   2.2184645e+04   2.2220313e+04   2.2255805e+04   2.2291715e+04   2.2328629e+04   2.2367110e+04   2.2407690e+04   2.2450865e+04   2.2497087e+04   2.2546762e+04   2.2600249e+04   2.2657855e+04   2.2719836e+04   2.2786401e+04   2.2857708e+04   2.2933871e+04   2.3014958e+04   2.3100996e+04   2.3191971e+04   2.3287834e+04   2.3388500e+04   2.3493854e+04   2.3603749e+04   2.3718013e+04   2.3836449e+04   2.3958837e+04   2.4084938e+04   2.4214494e+04   2.4347231e+04   2.4482861e+04   2.4621085e+04   2.4761592e+04   2.4904065e+04   2.5048181e+04   2.5193611e+04   2.5340025e+04   2.5487095e+04
2.7627323e+04   2.7373027e+04   2.7101646e+04   2.6814013e+04   2.6511332e+04   2.6195185e+04   2.5867537e+04   2.5530727e+04   2.5187447e+04   2.4840702e+04   2.4493768e+04   2.4150127e+04   2.3813401e+04   2.3487267e+04   2.3175372e+04   2.2881243e+04   2.2608191e+04   2.2359226e+04   2.2136970e+04   2.1943579e+04   2.1780685e+04   2.1649345e+04   2.1550003e+04   2.1482482e+04   2.1445983e+04   2.1439106e+04   2.1459889e+04   2.1505861e+04   2.1574111e+04   2.1661364e+04   2.1764068e+04   2.1878487e+04   2.2000789e+04   2.2127142e+04   2.2253798e+04   2.2377174e+04   2.2493926e+04   2.2601010e+04   2.2695735e+04   2.2775801e+04   2.2839328e+04   2.2884878e+04   2.2911460e+04   2.2918525e+04   2.2905965e+04   2.2874085e+04   2.2823586e+04   2.2755535e+04   2.2671326e+04   2.2572649e+04   2.2461443e+04   2.2339853e+04   2.2210186e+04   2.2074861e+04   2.1936360e+04   2.1797178e+04   2.1659775e+04   2.1526525e+04   2.1399671e+04   2.1281280e+04   2.1173204e+04   2.1077048e+04   2.0994134e+04   2.0925488e+04   2.0871818e+04   2.0833514e+04   2.0810648e+04   2.0802981e+04   2.0809991e+04   2.0830888e+04   2.0864655e+04   2.0910080e+04   2.0965801e+04   2.1030345e+04   2.1102180e+04   2.1179750e+04   2.1261526e+04   2.1346035e+04   2.1431902e+04   2.1517874e+04   2.1602848e+04   2.1685879e+04   2.1766201e+04   2.1843224e+04   2.1916538e+04   2.1985903e+04   2.2051243e+04   2.2112626e+04   2.2170257e+04   2.2224451e+04   2.2275617e+04   2.2324242e+04   2.2370865e+04   2.2416064e+04   2.2460437e+04   2.2504588e+04   2.2549113e+04   2.2594587e+04   2.2641556e+04   2.2690530e+04   2.2741977e+04   2.2796318e+04   2.2853925e+04   2.2915118e+04   2.2980170e+04   2.3049299e+04   2.3122679e+04   2.3200434e+04   2.3282644e+04   2.3369346e+04   2.3460540e+04   2.3556185e+04   2.3656210e+04   2.3760508e+04   2.3868945e+04   2.3981362e+04   2.4097574e+04   2.4217374e+04   2.4340536e+04   2.4466817e+04   2.4595960e+04   2.4727691e+04   2.4861729e+04   2.4997781e+04   2.5135548e+04   2.5274726e+04   2.5415007e+04   2.5556080e+04   2.5697636e+04
2.7606001e+04   2.7350894e+04   2.7078828e+04   2.6790647e+04   2.6487561e+04   2.6171151e+04   2.5843379e+04   2.5506574e+04   2.5163409e+04   2.4816867e+04   2.4470194e+04   2.4126840e+04   2.3790385e+04   2.3464464e+04   2.3152678e+04   2.2858506e+04   2.2585212e+04   2.2335760e+04   2.2112727e+04   2.1918233e+04   2.1753874e+04   2.1620681e+04   2.1519079e+04   2.1448881e+04   2.1409282e+04   2.1398890e+04   2.1415755e+04   2.1457428e+04   2.1521025e+04   2.1603304e+04   2.1700749e+04   2.1809664e+04   2.1926258e+04   2.2046740e+04   2.2167402e+04   2.2284700e+04   2.2395325e+04   2.2496265e+04   2.2584857e+04   2.2658824e+04   2.2716311e+04   2.2755898e+04   2.2776608e+04   2.2777913e+04   2.2759719e+04   2.2722349e+04   2.2666528e+04   2.2593346e+04   2.2504227e+04   2.2400897e+04   2.2285336e+04   2.2159737e+04   2.2026461e+04   2.1887986e+04   2.1746856e+04   2.1605635e+04   2.1466850e+04   2.1332943e+04   2.1206226e+04   2.1088829e+04   2.0982661e+04   2.0889375e+04   2.0810336e+04   2.0746598e+04   2.0698887e+04   2.0667596e+04   2.0652787e+04   2.0654201e+04   2.0671275e+04   2.0703172e+04   2.0748810e+04   2.0806907e+04   2.0876017e+04   2.0954579e+04   2.1040963e+04   2.1133517e+04   2.1230608e+04   2.1330662e+04   2.1432205e+04   2.1533886e+04   2.1634509e+04   2.1733044e+04   2.1828642e+04   2.1920641e+04   2.2008564e+04   2.2092113e+04   2.2171161e+04   2.2245737e+04   2.2316007e+04   2.2382260e+04   2.2444883e+04   2.2504347e+04   2.2561182e+04   2.2615960e+04   2.2669278e+04   2.2721743e+04   2.2773954e+04   2.2826496e+04   2.2879924e+04   2.2934759e+04   2.2991480e+04   2.3050521e+04   2.3112267e+04   2.3177052e+04   2.3245160e+04   2.3316826e+04   2.3392232e+04   2.3471518e+04   2.3554776e+04   2.3642056e+04   2.3733368e+04   2.3828685e+04   2.3927947e+04   2.4031062e+04   2.4137907e+04   2.4248337e+04   2.4362180e+04   2.4479244e+04   2.4599319e+04   2.4722175e+04   2.4847572e+04   2.4975255e+04   2.5104958e+04   2.5236408e+04   2.5369324e+04   2.5503422e+04   2.5638414e+04   2.5774010e+04   2.5909921e+04
2.7583345e+04   2.7327452e+04   2.7054750e+04   2.6766094e+04   2.6462699e+04   2.6146148e+04   2.5818399e+04   2.5481767e+04   2.5138908e+04   2.4792779e+04   2.4446594e+04   2.4103765e+04   2.3767827e+04   2.3442367e+04   2.3130936e+04   2.2836958e+04   2.2563645e+04   2.2313909e+04   2.2090280e+04   2.1894833e+04   2.1729129e+04   2.1594167e+04   2.1490352e+04   2.1417486e+04   2.1374762e+04   2.1360794e+04   2.1373651e+04   2.1410909e+04   2.1469716e+04   2.1546871e+04   2.1638904e+04   2.1742166e+04   2.1852918e+04   2.1967421e+04   2.2082015e+04   2.2193208e+04   2.2297734e+04   2.2392623e+04   2.2475248e+04   2.2543368e+04   2.2595153e+04   2.2629206e+04   2.2644574e+04   2.2640744e+04   2.2617637e+04   2.2575594e+04   2.2515354e+04   2.2438024e+04   2.2345049e+04   2.2238177e+04   2.2119416e+04   2.1990990e+04   2.1855294e+04   2.1714848e+04   2.1572240e+04   2.1430079e+04   2.1290941e+04   2.1157319e+04   2.1031572e+04   2.0915878e+04   2.0812190e+04   2.0722198e+04   2.0647300e+04   2.0588573e+04   2.0546760e+04   2.0522260e+04   2.0515131e+04   2.0525098e+04   2.0551574e+04   2.0593687e+04   2.0650309e+04   2.0720103e+04   2.0801562e+04   2.0893056e+04   2.0992880e+04   2.1099300e+04   2.1210603e+04   2.1325131e+04   2.1441324e+04   2.1557750e+04   2.1673127e+04   2.1786349e+04   2.1896492e+04   2.2002823e+04   2.2104799e+04   2.2202065e+04   2.2294438e+04   2.2381900e+04   2.2464575e+04   2.2542718e+04   2.2616686e+04   2.2686926e+04   2.2753948e+04   2.2818312e+04   2.2880607e+04   2.2941431e+04   2.3001386e+04   2.3061055e+04   2.3121000e+04   2.3181747e+04   2.3243784e+04   2.3307556e+04   2.3373458e+04   2.3441836e+04   2.3512987e+04   2.3587159e+04   2.3664549e+04   2.3745308e+04   2.3829542e+04   2.3917315e+04   2.4008651e+04   2.4103538e+04   2.4201928e+04   2.4303742e+04   2.4408875e+04   2.4517193e+04   2.4628541e+04   2.4742741e+04   2.4859600e+04   2.4978905e+04   2.5100431e+04   2.5223942e+04   2.5349191e+04   2.5475923e+04   2.5603877e+04   2.5732788e+04   2.5862389e+04   2.5992410e+04   2.6122584e+04
2.7559059e+04   2.7302377e+04   2.7029057e+04   2.6739966e+04   2.6436327e+04   2.6119725e+04   2.5792112e+04   2.5455792e+04   2.5113399e+04   2.4767865e+04   2.4422368e+04   2.4080276e+04   2.3745078e+04   2.3420309e+04   2.3109461e+04   2.2815903e+04   2.2542786e+04   2.2292967e+04   2.2068921e+04   2.1872677e+04   2.1705755e+04   2.1569122e+04   2.1463160e+04   2.1387658e+04   2.1341810e+04   2.1324238e+04   2.1333031e+04   2.1365796e+04   2.1419721e+04   2.1491651e+04   2.1578170e+04   2.1675687e+04   2.1780524e+04   2.1889002e+04   2.1997525e+04   2.2102658e+04   2.2201192e+04   2.2290210e+04   2.2367129e+04   2.2429749e+04   2.2476275e+04   2.2505339e+04   2.2516012e+04   2.2507798e+04   2.2480635e+04   2.2434874e+04   2.2371263e+04   2.2290919e+04   2.2195295e+04   2.2086146e+04   2.1965493e+04   2.1835572e+04   2.1698794e+04   2.1557697e+04   2.1414891e+04   2.1273008e+04   2.1134651e+04   2.1002341e+04   2.0878465e+04   2.0765228e+04   2.0664614e+04   2.0578337e+04   2.0507817e+04   2.0454152e+04   2.0418098e+04   2.0400062e+04   2.0400105e+04   2.0417948e+04   2.0452993e+04   2.0504347e+04   2.0570861e+04   2.0651162e+04   2.0743704e+04   2.0846811e+04   2.0958728e+04   2.1077665e+04   2.1201846e+04   2.1329552e+04   2.1459155e+04   2.1589153e+04   2.1718198e+04   2.1845112e+04   2.1968905e+04   2.2088775e+04   2.2204117e+04   2.2314513e+04   2.2419724e+04   2.2519678e+04   2.2614451e+04   2.2704251e+04   2.2789401e+04   2.2870310e+04   2.2947464e+04   2.3021396e+04   2.3092678e+04   2.3161896e+04   2.3229640e+04   2.3296490e+04   2.3363005e+04   2.3429714e+04   2.3497110e+04   2.3565644e+04   2.3635720e+04   2.3707696e+04   2.3781880e+04   2.3858533e+04   2.3937867e+04   2.4020046e+04   2.4105191e+04   2.4193382e+04   2.4284658e+04   2.4379020e+04   2.4476439e+04   2.4576850e+04   2.4680162e+04   2.4786260e+04   2.4895003e+04   2.5006232e+04   2.5119769e+04   2.5235419e+04   2.5352975e+04   2.5472220e+04   2.5592924e+04   2.5714853e+04   2.5837766e+04   2.5961417e+04   2.6085559e+04   2.6209944e+04   2.6334326e+04
2.7532863e+04   2.7275361e+04   2.7001411e+04   2.6711895e+04   2.6408045e+04   2.6091449e+04   2.5764055e+04   2.5428153e+04   2.5086358e+04   2.4741571e+04   2.4396933e+04   2.4055767e+04   2.3721512e+04   2.3397643e+04   2.3087593e+04   2.2794666e+04   2.2521952e+04   2.2272245e+04   2.2047963e+04   2.1851083e+04   2.1683081e+04   2.1544887e+04   2.1436862e+04   2.1358780e+04   2.1309834e+04   2.1288658e+04   2.1293366e+04   2.1321599e+04   2.1370589e+04   2.1437237e+04   2.1518188e+04   2.1609917e+04   2.1708817e+04   2.1811283e+04   2.1913790e+04   2.2012972e+04   2.2105689e+04   2.2189083e+04   2.2260629e+04   2.2318175e+04   2.2359968e+04   2.2384674e+04   2.2391390e+04   2.2379640e+04   2.2349376e+04   2.2300956e+04   2.2235130e+04   2.2153014e+04   2.2056057e+04   2.1946008e+04   2.1824881e+04   2.1694904e+04   2.1558484e+04   2.1418151e+04   2.1276514e+04   2.1136204e+04   2.0999826e+04   2.0869904e+04   2.0748833e+04   2.0638827e+04   2.0541879e+04   2.0459716e+04   2.0393773e+04   2.0345158e+04   2.0314641e+04   2.0302643e+04   2.0309231e+04   2.0334137e+04   2.0376765e+04   2.0436225e+04   2.0511361e+04   2.0600794e+04   2.0702964e+04   2.0816176e+04   2.0938648e+04   2.1068561e+04   2.1204103e+04   2.1343512e+04   2.1485113e+04   2.1627354e+04   2.1768830e+04   2.1908307e+04   2.2044730e+04   2.2177238e+04   2.2305161e+04   2.2428018e+04   2.2545508e+04   2.2657500e+04   2.2764012e+04   2.2865201e+04   2.2961338e+04   2.3052790e+04   2.3140001e+04   2.3223474e+04   2.3303749e+04   2.3381391e+04   2.3456971e+04   2.3531058e+04   2.3604202e+04   2.3676929e+04   2.3749733e+04   2.3823066e+04   2.3897342e+04   2.3972927e+04   2.4050142e+04   2.4129259e+04   2.4210504e+04   2.4294058e+04   2.4380059e+04   2.4468601e+04   2.4559741e+04   2.4653498e+04   2.4749857e+04   2.4848774e+04   2.4950175e+04   2.5053961e+04   2.5160009e+04   2.5268178e+04   2.5378308e+04   2.5490223e+04   2.5603735e+04   2.5718645e+04   2.5834743e+04   2.5951814e+04   2.6069637e+04   2.6187987e+04   2.6306637e+04   2.6425361e+04   2.6543932e+04
2.7504503e+04   2.7246121e+04   2.6971499e+04   2.6681538e+04   2.6377480e+04   2.6060918e+04   2.5733795e+04   2.5398388e+04   2.5057292e+04   2.4713376e+04   2.4369743e+04   2.4029667e+04   2.3696533e+04   2.3373755e+04   2.3064701e+04   2.2772607e+04   2.2500495e+04   2.2251092e+04   2.2026755e+04   2.1829404e+04   2.1660467e+04   2.1520838e+04   2.1410849e+04   2.1330263e+04   2.1278271e+04   2.1253521e+04   2.1254154e+04   2.1277848e+04   2.1321888e+04   2.1383235e+04   2.1458603e+04   2.1544544e+04   2.1637531e+04   2.1734040e+04   2.1830632e+04   2.1924020e+04   2.2011142e+04   2.2089212e+04   2.2155771e+04   2.2208722e+04   2.2246361e+04   2.2267396e+04   2.2270951e+04   2.2256572e+04   2.2224222e+04   2.2174263e+04   2.2107440e+04   2.2024856e+04   2.1927945e+04   2.1818433e+04   2.1698307e+04   2.1569770e+04   2.1435196e+04   2.1297089e+04   2.1158027e+04   2.1020616e+04   2.0887435e+04   2.0760990e+04   2.0643657e+04   2.0537641e+04   2.0444926e+04   2.0367240e+04   2.0306016e+04   2.0262374e+04   2.0237095e+04   2.0230614e+04   2.0243019e+04   2.0274060e+04   2.0323164e+04   2.0389462e+04   2.0471817e+04   2.0568869e+04   2.0679070e+04   2.0800735e+04   2.0932085e+04   2.1071298e+04   2.1216551e+04   2.1366063e+04   2.1518136e+04   2.1671182e+04   2.1823756e+04   2.1974576e+04   2.2122534e+04   2.2266711e+04   2.2406373e+04   2.2540975e+04   2.2670149e+04   2.2793696e+04   2.2911570e+04   2.3023862e+04   2.3130784e+04   2.3232647e+04   2.3329845e+04   2.3422834e+04   2.3512115e+04   2.3598220e+04   2.3681695e+04   2.3763085e+04   2.3842928e+04   2.3921740e+04   2.4000009e+04   2.4078192e+04   2.4156704e+04   2.4235920e+04   2.4316171e+04   2.4397744e+04   2.4480879e+04   2.4565774e+04   2.4652583e+04   2.4741420e+04   2.4832360e+04   2.4925441e+04   2.5020669e+04   2.5118016e+04   2.5217429e+04   2.5318827e+04   2.5422108e+04   2.5527149e+04   2.5633809e+04   2.5741933e+04   2.5851350e+04   2.5961882e+04   2.6073338e+04   2.6185525e+04   2.6298240e+04   2.6411280e+04   2.6524438e+04   2.6637508e+04   2.6750284e+04
2.7473752e+04   2.7214404e+04   2.6939044e+04   2.6648590e+04   2.6344299e+04   2.6027768e+04   2.5700937e+04   2.5366074e+04   2.5025750e+04   2.4682803e+04   2.4340294e+04   2.4001451e+04   2.3669596e+04   2.3348082e+04   2.3040207e+04   2.2749136e+04   2.2477816e+04   2.2228906e+04   2.2004694e+04   2.1807040e+04   2.1637323e+04   2.1496394e+04   2.1384558e+04   2.1301562e+04   2.1246598e+04   2.1218329e+04   2.1214922e+04   2.1234101e+04   2.1273206e+04   2.1329264e+04   2.1399068e+04   2.1479253e+04   2.1566382e+04   2.1657025e+04   2.1747834e+04   2.1835615e+04   2.1917394e+04   2.1990467e+04   2.2052448e+04   2.2101309e+04   2.2135399e+04   2.2153471e+04   2.2154682e+04   2.2138600e+04   2.2105198e+04   2.2054835e+04   2.1988246e+04   2.1906512e+04   2.1811035e+04   2.1703504e+04   2.1585861e+04   2.1460258e+04   2.1329019e+04   2.1194591e+04   2.1059498e+04   2.0926294e+04   2.0797508e+04   2.0675599e+04   2.0562905e+04   2.0461597e+04   2.0373635e+04   2.0300730e+04   2.0244311e+04   2.0205498e+04   2.0185084e+04   2.0183524e+04   2.0200934e+04   2.0237098e+04   2.0291483e+04   2.0363262e+04   2.0451343e+04   2.0554411e+04   2.0670960e+04   2.0799342e+04   2.0937812e+04   2.1084572e+04   2.1237816e+04   2.1395769e+04   2.1556727e+04   2.1719089e+04   2.1881384e+04   2.2042293e+04   2.2200662e+04   2.2355516e+04   2.2506060e+04   2.2651681e+04   2.2791938e+04   2.2926558e+04   2.3055419e+04   2.3178538e+04   2.3296055e+04   2.3408211e+04   2.3515338e+04   2.3617835e+04   2.3716152e+04   2.3810777e+04   2.3902219e+04   2.3990996e+04   2.4077622e+04   2.4162600e+04   2.4246409e+04   2.4329503e+04   2.4412299e+04   2.4495179e+04   2.4578485e+04   2.4662516e+04   2.4747529e+04   2.4833740e+04   2.4921323e+04   2.5010410e+04   2.5101098e+04   2.5193446e+04   2.5287481e+04   2.5383197e+04   2.5480561e+04   2.5579514e+04   2.5679973e+04   2.5781837e+04   2.5884985e+04   2.5989281e+04   2.6094576e+04   2.6200712e+04   2.6307519e+04   2.6414821e+04   2.6522438e+04   2.6630187e+04   2.6737882e+04   2.6845336e+04   2.6952364e+04
2.7440422e+04   2.7180000e+04   2.6903809e+04   2.6612789e+04   2.6308212e+04   2.5991683e+04   2.5665142e+04   2.5330843e+04   2.4991337e+04   2.4649432e+04   2.4308145e+04   2.3970651e+04   2.3640216e+04   2.3320122e+04   2.3013595e+04   2.2723723e+04   2.2453380e+04   2.2205145e+04   2.1981238e+04   2.1783455e+04   2.1613117e+04   2.1471035e+04   2.1357481e+04   2.1272187e+04   2.1214344e+04   2.1182629e+04   2.1175242e+04   2.1189953e+04   2.1224161e+04   2.1274968e+04   2.1339248e+04   2.1413731e+04   2.1495078e+04   2.1579960e+04   2.1665134e+04   2.1747507e+04   2.1824203e+04   2.1892609e+04   2.1950425e+04   2.1995695e+04   2.2026831e+04   2.2042636e+04   2.2042302e+04   2.2025422e+04   2.1991974e+04   2.1942315e+04   2.1877157e+04   2.1797551e+04   2.1704855e+04   2.1600703e+04   2.1486973e+04   2.1365749e+04   2.1239276e+04   2.1109924e+04   2.0980137e+04   2.0852387e+04   2.0729130e+04   2.0612753e+04   2.0505532e+04   2.0409586e+04   2.0326832e+04   2.0258951e+04   2.0207357e+04   2.0173167e+04   2.0157186e+04   2.0159894e+04   2.0181444e+04   2.0221668e+04   2.0280092e+04   2.0355953e+04   2.0448230e+04   2.0555678e+04   2.0676862e+04   2.0810203e+04   2.0954018e+04   2.1106560e+04   2.1266067e+04   2.1430794e+04   2.1599055e+04   2.1769252e+04   2.1939901e+04   2.2109658e+04   2.2277329e+04   2.2441890e+04   2.2602481e+04   2.2758419e+04   2.2909184e+04   2.3054421e+04   2.3193922e+04   2.3327617e+04   2.3455563e+04   2.3577921e+04   2.3694945e+04   2.3806964e+04   2.3914368e+04   2.4017589e+04   2.4117091e+04   2.4213354e+04   2.4306866e+04   2.4398106e+04   2.4487542e+04   2.4575620e+04   2.4662760e+04   2.4749348e+04   2.4835737e+04   2.4922239e+04   2.5009129e+04   2.5096642e+04   2.5184972e+04   2.5274276e+04   2.5364671e+04   2.5456241e+04   2.5549036e+04   2.5643073e+04   2.5738342e+04   2.5834806e+04   2.5932407e+04   2.6031063e+04   2.6130676e+04   2.6231130e+04   2.6332299e+04   2.6434043e+04   2.6536215e+04   2.6638659e+04   2.6741215e+04   2.6843719e+04   2.6946007e+04   2.7047912e+04   2.7149268e+04
2.7404370e+04   2.7142745e+04   2.6865608e+04   2.6573927e+04   2.6268989e+04   2.5952410e+04   2.5626128e+04   2.5292392e+04   2.4953728e+04   2.4612913e+04   2.4272922e+04   2.3936878e+04   2.3607981e+04   2.3289447e+04   2.2984423e+04   2.2695919e+04   2.2426726e+04   2.2179346e+04   2.1955923e+04   2.1758184e+04   2.1587392e+04   2.1444310e+04   2.1329179e+04   2.1241710e+04   2.1181095e+04   2.1146026e+04   2.1134735e+04   2.1145040e+04   2.1174407e+04   2.1220013e+04   2.1278824e+04   2.1347669e+04   2.1423315e+04   2.1502546e+04   2.1582229e+04   2.1659385e+04   2.1731244e+04   2.1795296e+04   2.1849332e+04   2.1891477e+04   2.1920215e+04   2.1934400e+04   2.1933268e+04   2.1916431e+04   2.1883878e+04   2.1835952e+04   2.1773343e+04   2.1697058e+04   2.1608398e+04   2.1508929e+04   2.1400447e+04   2.1284944e+04   2.1164569e+04   2.1041588e+04   2.0918339e+04   2.0797191e+04   2.0680499e+04   2.0570557e+04   2.0469556e+04   2.0379542e+04   2.0302375e+04   2.0239695e+04   2.0192888e+04   2.0163066e+04   2.0151045e+04   2.0157337e+04   2.0182141e+04   2.0225353e+04   2.0286573e+04   2.0365126e+04   2.0460086e+04   2.0570304e+04   2.0694446e+04   2.0831028e+04   2.0978456e+04   2.1135067e+04   2.1299164e+04   2.1469057e+04   2.1643098e+04   2.1819708e+04   2.1997405e+04   2.2174829e+04   2.2350756e+04   2.2524108e+04   2.2693967e+04   2.2859571e+04   2.3020318e+04   2.3175761e+04   2.3325596e+04   2.3469657e+04   2.3607902e+04   2.3740399e+04   2.3867315e+04   2.3988897e+04   2.4105460e+04   2.4217373e+04   2.4325045e+04   2.4428910e+04   2.4529420e+04   2.4627029e+04   2.4722188e+04   2.4815334e+04   2.4906886e+04   2.4997234e+04   2.5086740e+04   2.5175733e+04   2.5264506e+04   2.5353314e+04   2.5442375e+04   2.5531870e+04   2.5621942e+04   2.5712700e+04   2.5804218e+04   2.5896541e+04   2.5989683e+04   2.6083633e+04   2.6178354e+04   2.6273788e+04   2.6369861e+04   2.6466479e+04   2.6563536e+04   2.6660915e+04   2.6758489e+04   2.6856123e+04   2.6953677e+04   2.7051008e+04   2.7147971e+04   2.7244418e+04   2.7340205e+04
2.7365501e+04   2.7102527e+04   2.6824315e+04   2.6531857e+04   2.6226462e+04   2.5909760e+04   2.5583690e+04   2.5250492e+04   2.4912673e+04   2.4572977e+04   2.4234338e+04   2.3899823e+04   2.3572570e+04   2.3255719e+04   2.2952341e+04   2.2665362e+04   2.2397488e+04   2.2151137e+04   2.1928374e+04   2.1730853e+04   2.1559776e+04   2.1415854e+04   2.1299291e+04   2.1209781e+04   2.1146510e+04   2.1108188e+04   2.1093079e+04   2.1099051e+04   2.1123638e+04   2.1164100e+04   2.1217498e+04   2.1280767e+04   2.1350787e+04   2.1424461e+04   2.1498779e+04   2.1570882e+04   2.1638117e+04   2.1698082e+04   2.1748672e+04   2.1788099e+04   2.1814924e+04   2.1828060e+04   2.1826786e+04   2.1810740e+04   2.1779913e+04   2.1734640e+04   2.1675575e+04   2.1603676e+04   2.1520177e+04   2.1426557e+04   2.1324517e+04   2.1215939e+04   2.1102852e+04   2.0987396e+04   2.0871784e+04   2.0758256e+04   2.0649044e+04   2.0546326e+04   2.0452190e+04   2.0368590e+04   2.0297313e+04   2.0239944e+04   2.0197839e+04   2.0172100e+04   2.0163554e+04   2.0172748e+04   2.0199940e+04   2.0245100e+04   2.0307923e+04   2.0387840e+04   2.0484043e+04   2.0595506e+04   2.0721022e+04   2.0859229e+04   2.1008649e+04   2.1167724e+04   2.1334851e+04   2.1508416e+04   2.1686824e+04   2.1868533e+04   2.2052078e+04   2.2236089e+04   2.2419314e+04   2.2600630e+04   2.2779054e+04   2.2953747e+04   2.3124014e+04   2.3289309e+04   2.3449221e+04   2.3603478e+04   2.3751927e+04   2.3894533e+04   2.4031361e+04   2.4162565e+04   2.4288375e+04   2.4409088e+04   2.4525046e+04   2.4636634e+04   2.4744260e+04   2.4848348e+04   2.4949329e+04   2.5047628e+04   2.5143660e+04   2.5237820e+04   2.5330482e+04   2.5421989e+04   2.5512654e+04   2.5602755e+04   2.5692535e+04   2.5782202e+04   2.5871927e+04   2.5961846e+04   2.6052063e+04   2.6142648e+04   2.6233644e+04   2.6325064e+04   2.6416899e+04   2.6509114e+04   2.6601658e+04   2.6694462e+04   2.6787442e+04   2.6880501e+04   2.6973534e+04   2.7066428e+04   2.7159062e+04   2.7251313e+04   2.7343054e+04   2.7434160e+04   2.7524501e+04
2.7323779e+04   2.7059299e+04   2.6779866e+04   2.6486502e+04   2.6180542e+04   2.5863627e+04   2.5537703e+04   2.5205001e+04   2.4868012e+04   2.4529449e+04   2.4192201e+04   2.3859279e+04   2.3533758e+04   2.3218703e+04   2.2917102e+04   2.2631794e+04   2.2365398e+04   2.2120245e+04   2.1898314e+04   2.1701185e+04   2.1529991e+04   2.1385390e+04   2.1267547e+04   2.1176132e+04   2.1110328e+04   2.1068857e+04   2.1050018e+04   2.1051732e+04   2.1071601e+04   2.1106970e+04   2.1155002e+04   2.1212740e+04   2.1277188e+04   2.1345374e+04   2.1414418e+04   2.1481587e+04   2.1544355e+04   2.1600440e+04   2.1647843e+04   2.1684875e+04   2.1710177e+04   2.1722728e+04   2.1721853e+04   2.1707215e+04   2.1678814e+04   2.1636965e+04   2.1582288e+04   2.1515681e+04   2.1438299e+04   2.1351527e+04   2.1256953e+04   2.1156330e+04   2.1051553e+04   2.0944615e+04   2.0837582e+04   2.0732544e+04   2.0631591e+04   2.0536766e+04   2.0450032e+04   2.0373238e+04   2.0308084e+04   2.0256092e+04   2.0218577e+04   2.0196629e+04   2.0191088e+04   2.0202543e+04   2.0231315e+04   2.0277465e+04   2.0340796e+04   2.0420866e+04   2.0517004e+04   2.0628331e+04   2.0753789e+04   2.0892162e+04   2.1042114e+04   2.1202216e+04   2.1370976e+04   2.1546876e+04   2.1728394e+04   2.1914038e+04   2.2102366e+04   2.2292010e+04   2.2481695e+04   2.2670254e+04   2.2856635e+04   2.3039918e+04   2.3219312e+04   2.3394161e+04   2.3563942e+04   2.3728261e+04   2.3886849e+04   2.4039552e+04   2.4186323e+04   2.4327215e+04   2.4462363e+04   2.4591980e+04   2.4716338e+04   2.4835762e+04   2.4950613e+04   2.5061282e+04   2.5168173e+04   2.5271700e+04   2.5372273e+04   2.5470291e+04   2.5566140e+04   2.5660178e+04   2.5752741e+04   2.5844132e+04   2.5934620e+04   2.6024443e+04   2.6113801e+04   2.6202862e+04   2.6291759e+04   2.6380592e+04   2.6469431e+04   2.6558320e+04   2.6647273e+04   2.6736285e+04   2.6825328e+04   2.6914356e+04   2.7003308e+04   2.7092110e+04   2.7180678e+04   2.7268919e+04   2.7356733e+04   2.7444015e+04   2.7530660e+04   2.7616558e+04   2.7701600e+04
2.7279231e+04   2.7013080e+04   2.6732272e+04   2.6437865e+04   2.6131217e+04   2.5813989e+04   2.5488133e+04   2.5155874e+04   2.4819687e+04   2.4482254e+04   2.4146422e+04   2.3815146e+04   2.3491433e+04   2.3178273e+04   2.2878569e+04   2.2595071e+04   2.2330306e+04   2.2086511e+04   2.1865581e+04   2.1669012e+04   2.1497868e+04   2.1352747e+04   2.1233774e+04   2.1140590e+04   2.1072373e+04   2.1027857e+04   2.1005374e+04   2.1002896e+04   2.1018097e+04   2.1048411e+04   2.1091102e+04   2.1143332e+04   2.1202229e+04   2.1264953e+04   2.1328761e+04   2.1391058e+04   2.1449448e+04   2.1501776e+04   2.1546160e+04   2.1581015e+04   2.1605069e+04   2.1617371e+04   2.1617297e+04   2.1604538e+04   2.1579099e+04   2.1541279e+04   2.1491655e+04   2.1431062e+04   2.1360569e+04   2.1281454e+04   2.1195178e+04   2.1103355e+04   2.1007726e+04   2.0910123e+04   2.0812444e+04   2.0716615e+04   2.0624562e+04   2.0538178e+04   2.0459285e+04   2.0389615e+04   2.0330766e+04   2.0284190e+04   2.0251155e+04   2.0232734e+04   2.0229785e+04   2.0242939e+04   2.0272591e+04   2.0318900e+04   2.0381794e+04   2.0460972e+04   2.0555919e+04   2.0665922e+04   2.0790093e+04   2.0927384e+04   2.1076619e+04   2.1236517e+04   2.1405719e+04   2.1582816e+04   2.1766373e+04   2.1954960e+04   2.2147169e+04   2.2341639e+04   2.2537075e+04   2.2732264e+04   2.2926091e+04   2.3117546e+04   2.3305736e+04   2.3489892e+04   2.3669366e+04   2.3843637e+04   2.4012307e+04   2.4175096e+04   2.4331837e+04   2.4482470e+04   2.4627028e+04   2.4765632e+04   2.4898479e+04   2.5025826e+04   2.5147986e+04   2.5265310e+04   2.5378176e+04   2.5486983e+04   2.5592136e+04   2.5694040e+04   2.5793090e+04   2.5889665e+04   2.5984122e+04   2.6076790e+04   2.6167970e+04   2.6257930e+04   2.6346902e+04   2.6435086e+04   2.6522648e+04   2.6609719e+04   2.6696400e+04   2.6782763e+04   2.6868853e+04   2.6954689e+04   2.7040269e+04   2.7125573e+04   2.7210562e+04   2.7295185e+04   2.7379378e+04   2.7463070e+04   2.7546180e+04   2.7628623e+04   2.7710311e+04   2.7791153e+04   2.7871058e+04
2.7231950e+04   2.6963961e+04   2.6681623e+04   2.6386030e+04   2.6078568e+04   2.5760920e+04   2.5435045e+04   2.5103167e+04   2.4767745e+04   2.4431431e+04   2.4097029e+04   2.3767440e+04   2.3445603e+04   2.3134427e+04   2.2836731e+04   2.2555172e+04   2.2292180e+04   2.2049899e+04   2.1830130e+04   2.1634286e+04   2.1463353e+04   2.1317868e+04   2.1197908e+04   2.1103086e+04   2.1032569e+04   2.0985102e+04   2.0959048e+04   2.0952432e+04   2.0962997e+04   2.0988269e+04   2.1025617e+04   2.1072323e+04   2.1125644e+04   2.1182881e+04   2.1241431e+04   2.1298842e+04   2.1352859e+04   2.1401460e+04   2.1442887e+04   2.1475665e+04   2.1498615e+04   2.1510863e+04   2.1511838e+04   2.1501265e+04   2.1479153e+04   2.1445783e+04   2.1401690e+04   2.1347640e+04   2.1284609e+04   2.1213760e+04   2.1136419e+04   2.1054048e+04   2.0968220e+04   2.0880593e+04   2.0792883e+04   2.0706836e+04   2.0624200e+04   2.0546700e+04   2.0476011e+04   2.0413727e+04   2.0361342e+04   2.0320224e+04   2.0291593e+04   2.0276503e+04   2.0275826e+04   2.0290240e+04   2.0320220e+04   2.0366034e+04   2.0427741e+04   2.0505196e+04   2.0598056e+04   2.0705789e+04   2.0827691e+04   2.0962901e+04   2.1110418e+04   2.1269125e+04   2.1437810e+04   2.1615187e+04   2.1799921e+04   2.1990650e+04   2.2186008e+04   2.2384646e+04   2.2585252e+04   2.2786570e+04   2.2987415e+04   2.3186690e+04   2.3383394e+04   2.3576637e+04   2.3765643e+04   2.3949754e+04   2.4128436e+04   2.4301277e+04   2.4467981e+04   2.4628368e+04   2.4782363e+04   2.4929992e+04   2.5071367e+04   2.5206678e+04   2.5336183e+04   2.5460190e+04   2.5579053e+04   2.5693152e+04   2.5802890e+04   2.5908675e+04   2.6010914e+04   2.6110007e+04   2.6206333e+04   2.6300253e+04   2.6392096e+04   2.6482165e+04   2.6570726e+04   2.6658013e+04   2.6744225e+04   2.6829527e+04   2.6914052e+04   2.6997903e+04   2.7081153e+04   2.7163849e+04   2.7246017e+04   2.7327659e+04   2.7408761e+04   2.7489295e+04   2.7569218e+04   2.7648478e+04   2.7727014e+04   2.7804761e+04   2.7881646e+04   2.7957599e+04   2.8032542e+04
2.7182102e+04   2.6912113e+04   2.6628091e+04   2.6331169e+04   2.6022768e+04   2.5704591e+04   2.5378609e+04   2.5047047e+04   2.4712348e+04   2.4377136e+04   2.4044174e+04   2.3716306e+04   2.3396402e+04   2.3087293e+04   2.2791708e+04   2.2512208e+04   2.2251125e+04   2.2010505e+04   2.1792050e+04   2.1597085e+04   2.1426515e+04   2.1280813e+04   2.1160001e+04   2.1063660e+04   2.0990944e+04   2.0940606e+04   2.0911037e+04   2.0900313e+04   2.0906249e+04   2.0926461e+04   2.0958425e+04   2.0999545e+04   2.1047215e+04   2.1098876e+04   2.1152073e+04   2.1204504e+04   2.1254061e+04   2.1298861e+04   2.1337277e+04   2.1367950e+04   2.1389803e+04   2.1402043e+04   2.1404157e+04   2.1395905e+04   2.1377305e+04   2.1348624e+04   2.1310348e+04   2.1263175e+04   2.1207984e+04   2.1145817e+04   2.1077857e+04   2.1005405e+04   2.0929858e+04   2.0852688e+04   2.0775417e+04   2.0699598e+04   2.0626791e+04   2.0558543e+04   2.0496364e+04   2.0441709e+04   2.0395954e+04   2.0360380e+04   2.0336150e+04   2.0324297e+04   2.0325709e+04   2.0341111e+04   2.0371061e+04   2.0415941e+04   2.0475951e+04   2.0551110e+04   2.0641254e+04   2.0746045e+04   2.0864978e+04   2.0997385e+04   2.1142457e+04   2.1299252e+04   2.1466713e+04   2.1643688e+04   2.1828948e+04   2.2021210e+04   2.2219153e+04   2.2421445e+04   2.2626759e+04   2.2833795e+04   2.3041301e+04   2.3248087e+04   2.3453045e+04   2.3655158e+04   2.3853516e+04   2.4047323e+04   2.4235904e+04   2.4418706e+04   2.4595303e+04   2.4765388e+04   2.4928776e+04   2.5085390e+04   2.5235258e+04   2.5378499e+04   2.5515312e+04   2.5645966e+04   2.5770784e+04   2.5890132e+04   2.6004406e+04   2.6114021e+04   2.6219397e+04   2.6320953e+04   2.6419097e+04   2.6514216e+04   2.6606676e+04   2.6696811e+04   2.6784925e+04   2.6871286e+04   2.6956130e+04   2.7039656e+04   2.7122029e+04   2.7203384e+04   2.7283823e+04   2.7363423e+04   2.7442235e+04   2.7520288e+04   2.7597590e+04   2.7674135e+04   2.7749902e+04   2.7824858e+04   2.7898962e+04   2.7972165e+04   2.8044415e+04   2.8115654e+04   2.8185824e+04
2.7129927e+04   2.6857784e+04   2.6571933e+04   2.6273550e+04   2.5964089e+04   2.5645279e+04   2.5319106e+04   2.4987795e+04   2.4653777e+04   2.4319650e+04   2.3988134e+04   2.3662017e+04   2.3344100e+04   2.3037134e+04   2.2743755e+04   2.2466428e+04   2.2207382e+04   2.1968559e+04   2.1751562e+04   2.1557621e+04   2.1387557e+04   2.1241770e+04   2.1120228e+04   2.1022473e+04   2.0947641e+04   2.0894491e+04   2.0861440e+04   2.0846611e+04   2.0847891e+04   2.0862985e+04   2.0889480e+04   2.0924902e+04   2.0966784e+04   2.1012712e+04   2.1060385e+04   2.1107656e+04   2.1152567e+04   2.1193384e+04   2.1228616e+04   2.1257029e+04   2.1277653e+04   2.1289780e+04   2.1292964e+04   2.1287002e+04   2.1271929e+04   2.1247993e+04   2.1215640e+04   2.1175494e+04   2.1128338e+04   2.1075088e+04   2.1016781e+04   2.0954552e+04   2.0889613e+04   2.0823243e+04   2.0756762e+04   2.0691521e+04   2.0628883e+04   2.0570207e+04   2.0516832e+04   2.0470063e+04   2.0431151e+04   2.0401284e+04   2.0381565e+04   2.0373002e+04   2.0376495e+04   2.0392817e+04   2.0422610e+04   2.0466372e+04   2.0524446e+04   2.0597020e+04   2.0684117e+04   2.0785599e+04   2.0901162e+04   2.1030345e+04   2.1172533e+04   2.1326966e+04   2.1492751e+04   2.1668875e+04   2.1854223e+04   2.2047591e+04   2.2247711e+04   2.2453268e+04   2.2662923e+04   2.2875335e+04   2.3089183e+04   2.3303186e+04   2.3516126e+04   2.3726859e+04   2.3934342e+04   2.4137635e+04   2.4335920e+04   2.4528503e+04   2.4714823e+04   2.4894448e+04   2.5067078e+04   2.5232534e+04   2.5390757e+04   2.5541793e+04   2.5685785e+04   2.5822958e+04   2.5953608e+04   2.6078084e+04   2.6196779e+04   2.6310112e+04   2.6418519e+04   2.6522439e+04   2.6622308e+04   2.6718544e+04   2.6811545e+04   2.6901683e+04   2.6989298e+04   2.7074695e+04   2.7158144e+04   2.7239881e+04   2.7320104e+04   2.7398979e+04   2.7476641e+04   2.7553192e+04   2.7628712e+04   2.7703253e+04   2.7776848e+04   2.7849513e+04   2.7921246e+04   2.7992036e+04   2.8061857e+04   2.8130681e+04   2.8198469e+04   2.8265181e+04   2.8330772e+04
2.7075741e+04   2.6801307e+04   2.6513497e+04   2.6213533e+04   2.5902904e+04   2.5583368e+04   2.5256928e+04   2.4925812e+04   2.4592439e+04   2.4259381e+04   2.3929318e+04   2.3604983e+04   2.3289105e+04   2.2984353e+04   2.2693271e+04   2.2418223e+04   2.2161333e+04   2.1924435e+04   2.1709030e+04   2.1516245e+04   2.1346816e+04   2.1201063e+04   2.1078894e+04   2.0979810e+04   2.0902925e+04   2.0846997e+04   2.0810467e+04   2.0791504e+04   2.0788064e+04   2.0797942e+04   2.0818832e+04   2.0848389e+04   2.0884283e+04   2.0924252e+04   2.0966150e+04   2.1007989e+04   2.1047972e+04   2.1084518e+04   2.1116278e+04   2.1142149e+04   2.1161276e+04   2.1173046e+04   2.1177080e+04   2.1173225e+04   2.1161529e+04   2.1142233e+04   2.1115741e+04   2.1082609e+04   2.1043519e+04   2.0999267e+04   2.0950738e+04   2.0898898e+04   2.0844773e+04   2.0789440e+04   2.0734016e+04   2.0679642e+04   2.0627476e+04   2.0578683e+04   2.0534426e+04   2.0495851e+04   2.0464081e+04   2.0440203e+04   2.0425254e+04   2.0420215e+04   2.0425991e+04   2.0443403e+04   2.0473174e+04   2.0515913e+04   2.0572110e+04   2.0642120e+04   2.0726154e+04   2.0824273e+04   2.0936379e+04   2.1062217e+04   2.1201370e+04   2.1353263e+04   2.1517169e+04   2.1692217e+04   2.1877406e+04   2.2071618e+04   2.2273637e+04   2.2482169e+04   2.2695866e+04   2.2913348e+04   2.3133227e+04   2.3354132e+04   2.3574736e+04   2.3793773e+04   2.4010063e+04   2.4222528e+04   2.4430206e+04   2.4632265e+04   2.4828008e+04   2.5016880e+04   2.5198465e+04   2.5372485e+04   2.5538793e+04   2.5697366e+04   2.5848288e+04   2.5991744e+04   2.6128000e+04   2.6257392e+04   2.6380309e+04   2.6497175e+04   2.6608442e+04   2.6714571e+04   2.6816024e+04   2.6913253e+04   2.7006689e+04   2.7096740e+04   2.7183782e+04   2.7268159e+04   2.7350176e+04   2.7430103e+04   2.7508173e+04   2.7584584e+04   2.7659499e+04   2.7733051e+04   2.7805345e+04   2.7876457e+04   2.7946445e+04   2.8015344e+04   2.8083173e+04   2.8149938e+04   2.8215635e+04   2.8280247e+04   2.8343755e+04   2.8406131e+04   2.8467345e+04
2.7019936e+04   2.6743096e+04   2.6453219e+04   2.6151572e+04   2.5839687e+04   2.5519349e+04   2.5192580e+04   2.4861614e+04   2.4528859e+04   2.4196865e+04   2.3868269e+04   2.3545749e+04   2.3231962e+04   2.2929495e+04   2.2640798e+04   2.2368129e+04   2.2113506e+04   2.1878652e+04   2.1664959e+04   2.1473451e+04   2.1304769e+04   2.1159152e+04   2.1036441e+04   2.0936092e+04   2.0857190e+04   2.0798491e+04   2.0758454e+04   2.0735294e+04   2.0727031e+04   2.0731548e+04   2.0746650e+04   2.0770118e+04   2.0799761e+04   2.0833473e+04   2.0869268e+04   2.0905322e+04   2.0940002e+04   2.0971886e+04   2.0999778e+04   2.1022711e+04   2.1039952e+04   2.1050989e+04   2.1055522e+04   2.1053448e+04   2.1044842e+04   2.1029937e+04   2.1009104e+04   2.0982831e+04   2.0951709e+04   2.0916406e+04   2.0877664e+04   2.0836276e+04   2.0793081e+04   2.0748956e+04   2.0704806e+04   2.0661561e+04   2.0620172e+04   2.0581604e+04   2.0546837e+04   2.0516855e+04   2.0492645e+04   2.0475188e+04   2.0465451e+04   2.0464378e+04   2.0472877e+04   2.0491809e+04   2.0521971e+04   2.0564083e+04   2.0618771e+04   2.0686555e+04   2.0767829e+04   2.0862848e+04   2.0971718e+04   2.1094387e+04   2.1230632e+04   2.1380061e+04   2.1542114e+04   2.1716060e+04   2.1901013e+04   2.2095942e+04   2.2299684e+04   2.2510971e+04   2.2728445e+04   2.2950692e+04   2.3176260e+04   2.3403695e+04   2.3631564e+04   2.3858483e+04   2.4083141e+04   2.4304325e+04   2.4520937e+04   2.4732008e+04   2.4936712e+04   2.5134373e+04   2.5324464e+04   2.5506610e+04   2.5680581e+04   2.5846284e+04   2.6003750e+04   2.6153124e+04   2.6294644e+04   2.6428633e+04   2.6555475e+04   2.6675605e+04   2.6789486e+04   2.6897604e+04   2.7000448e+04   2.7098499e+04   2.7192223e+04   2.7282065e+04   2.7368437e+04   2.7451717e+04   2.7532249e+04   2.7610335e+04   2.7686242e+04   2.7760199e+04   2.7832399e+04   2.7903001e+04   2.7972136e+04   2.8039906e+04   2.8106387e+04   2.8171638e+04   2.8235696e+04   2.8298586e+04   2.8360318e+04   2.8420892e+04   2.8480304e+04   2.8538539e+04   2.8595582e+04
2.6962978e+04   2.6683646e+04   2.6391620e+04   2.6088217e+04   2.5775010e+04   2.5453816e+04   2.5126679e+04   2.4795836e+04   2.4463690e+04   2.4132765e+04   2.3805659e+04   2.3484993e+04   2.3173355e+04   2.2873245e+04   2.2587017e+04   2.2316825e+04   2.2064574e+04   2.1831873e+04   2.1620001e+04   2.1429876e+04   2.1262038e+04   2.1116639e+04   2.0993452e+04   2.0891877e+04   2.0810971e+04   2.0749479e+04   2.0705877e+04   2.0678420e+04   2.0665191e+04   2.0664161e+04   2.0673243e+04   2.0690343e+04   2.0713417e+04   2.0740510e+04   2.0769803e+04   2.0799641e+04   2.0828561e+04   2.0855305e+04   2.0878837e+04   2.0898335e+04   2.0913195e+04   2.0923014e+04   2.0927579e+04   2.0926848e+04   2.0920926e+04   2.0910049e+04   2.0894559e+04   2.0874885e+04   2.0851525e+04   2.0825033e+04   2.0796004e+04   2.0765063e+04   2.0732863e+04   2.0700080e+04   2.0667409e+04   2.0635568e+04   2.0605295e+04   2.0577355e+04   2.0552540e+04   2.0531667e+04   2.0515582e+04   2.0505154e+04   2.0501273e+04   2.0504837e+04   2.0516751e+04   2.0537904e+04   2.0569160e+04   2.0611339e+04   2.0665197e+04   2.0731405e+04   2.0810531e+04   2.0903019e+04   2.1009167e+04   2.1129116e+04   2.1262836e+04   2.1410110e+04   2.1570536e+04   2.1743526e+04   2.1928304e+04   2.2123926e+04   2.2329284e+04   2.2543136e+04   2.2764122e+04   2.2990795e+04   2.3221648e+04   2.3455150e+04   2.3689769e+04   2.3924011e+04   2.4156444e+04   2.4385729e+04   2.4610636e+04   2.4830072e+04   2.5043087e+04   2.5248892e+04   2.5446856e+04   2.5636512e+04   2.5817552e+04   2.5989818e+04   2.6153290e+04   2.6308075e+04   2.6454388e+04   2.6592537e+04   2.6722906e+04   2.6845936e+04   2.6962106e+04   2.7071922e+04   2.7175900e+04   2.7274552e+04   2.7368377e+04   2.7457853e+04   2.7543427e+04   2.7625514e+04   2.7704489e+04   2.7780691e+04   2.7854416e+04   2.7925923e+04   2.7995434e+04   2.8063134e+04   2.8129178e+04   2.8193690e+04   2.8256769e+04   2.8318492e+04   2.8378915e+04   2.8438079e+04   2.8496009e+04   2.8552722e+04   2.8608224e+04   2.8662515e+04   2.8715592e+04
2.6905405e+04   2.6623528e+04   2.6329306e+04   2.6024105e+04   2.5709542e+04   2.5387468e+04   2.5059946e+04   2.4729224e+04   2.4397696e+04   2.4067863e+04   2.3742285e+04   2.3423524e+04   2.3114099e+04   2.2816422e+04   2.2532750e+04   2.2265128e+04   2.2015348e+04   2.1784902e+04   2.1574951e+04   2.1386301e+04   2.1219388e+04   2.1074274e+04   2.0950654e+04   2.0847872e+04   2.0764948e+04   2.0700615e+04   2.0653360e+04   2.0621474e+04   2.0603103e+04   2.0596301e+04   2.0599088e+04   2.0609499e+04   2.0625632e+04   2.0645692e+04   2.0668026e+04   2.0691154e+04   2.0713787e+04   2.0734842e+04   2.0753446e+04   2.0768931e+04   2.0780831e+04   2.0788862e+04   2.0792906e+04   2.0792989e+04   2.0789258e+04   2.0781959e+04   2.0771413e+04   2.0757998e+04   2.0742129e+04   2.0724247e+04   2.0704807e+04   2.0684272e+04   2.0663113e+04   2.0641806e+04   2.0620837e+04   2.0600712e+04   2.0581958e+04   2.0565137e+04   2.0550848e+04   2.0539739e+04   2.0532507e+04   2.0529904e+04   2.0532732e+04   2.0541838e+04   2.0558108e+04   2.0582451e+04   2.0615785e+04   2.0659016e+04   2.0713013e+04   2.0778589e+04   2.0856470e+04   2.0947271e+04   2.1051474e+04   2.1169402e+04   2.1301200e+04   2.1446822e+04   2.1606019e+04   2.1778332e+04   2.1963099e+04   2.2159457e+04   2.2366357e+04   2.2582584e+04   2.2806782e+04   2.3037478e+04   2.3273119e+04   2.3512104e+04   2.3752816e+04   2.3993662e+04   2.4233101e+04   2.4469677e+04   2.4702047e+04   2.4928998e+04   2.5149473e+04   2.5362576e+04   2.5567583e+04   2.5763944e+04   2.5951279e+04   2.6129369e+04   2.6298149e+04   2.6457693e+04   2.6608193e+04   2.6749946e+04   2.6883334e+04   2.7008804e+04   2.7126852e+04   2.7238003e+04   2.7342798e+04   2.7441776e+04   2.7535469e+04   2.7624386e+04   2.7709007e+04   2.7789779e+04   2.7867110e+04   2.7941369e+04   2.8012882e+04   2.8081936e+04   2.8148779e+04   2.8213621e+04   2.8276640e+04   2.8337980e+04   2.8397762e+04   2.8456077e+04   2.8513001e+04   2.8568589e+04   2.8622882e+04   2.8675908e+04   2.8727688e+04   2.8778232e+04   2.8827548e+04
2.6847819e+04   2.6563387e+04   2.6266960e+04   2.5959957e+04   2.5644040e+04   2.5321094e+04   2.4993205e+04   2.4662629e+04   2.4331755e+04   2.4003060e+04   2.3679064e+04   2.3362275e+04   2.3055136e+04   2.2759976e+04   2.2478949e+04   2.2213993e+04   2.1966780e+04   2.1738683e+04   2.1530743e+04   2.1343649e+04   2.1177729e+04   2.1032950e+04   2.0908923e+04   2.0804933e+04   2.0719958e+04   2.0652713e+04   2.0601693e+04   2.0565222e+04   2.0541502e+04   2.0528674e+04   2.0524861e+04   2.0528226e+04   2.0537011e+04   2.0549583e+04   2.0564460e+04   2.0580339e+04   2.0596113e+04   2.0610877e+04   2.0623931e+04   2.0634770e+04   2.0643073e+04   2.0648686e+04   2.0651594e+04   2.0651904e+04   2.0649812e+04   2.0645586e+04   2.0639534e+04   2.0631992e+04   2.0623302e+04   2.0613798e+04   2.0603805e+04   2.0593629e+04   2.0583562e+04   2.0573886e+04   2.0564884e+04   2.0556847e+04   2.0550094e+04   2.0544981e+04   2.0541914e+04   2.0541366e+04   2.0543881e+04   2.0550084e+04   2.0560679e+04   2.0576451e+04   2.0598255e+04   2.0627006e+04   2.0663658e+04   2.0709185e+04   2.0764555e+04   2.0830701e+04   2.0908490e+04   2.0998692e+04   2.1101952e+04   2.1218760e+04   2.1349424e+04   2.1494053e+04   2.1652541e+04   2.1824556e+04   2.2009539e+04   2.2206709e+04   2.2415077e+04   2.2633459e+04   2.2860506e+04   2.3094733e+04   2.3334547e+04   2.3578293e+04   2.3824282e+04   2.4070837e+04   2.4316323e+04   2.4559185e+04   2.4797978e+04   2.5031390e+04   2.5258265e+04   2.5477618e+04   2.5688641e+04   2.5890710e+04   2.6083383e+04   2.6266389e+04   2.6439623e+04   2.6603127e+04   2.6757075e+04   2.6901756e+04   2.7037548e+04   2.7164907e+04   2.7284340e+04   2.7396391e+04   2.7501623e+04   2.7600602e+04   2.7693887e+04   2.7782016e+04   2.7865499e+04   2.7944811e+04   2.8020392e+04   2.8092635e+04   2.8161897e+04   2.8228487e+04   2.8292678e+04   2.8354703e+04   2.8414760e+04   2.8473013e+04   2.8529598e+04   2.8584627e+04   2.8638188e+04   2.8690350e+04   2.8741168e+04   2.8790683e+04   2.8838926e+04   2.8885918e+04   2.8931677e+04
2.6790885e+04   2.6503930e+04   2.6205334e+04   2.5896570e+04   2.5579342e+04   2.5255572e+04   2.4927369e+04   2.4596999e+04   2.4266843e+04   2.3939358e+04   2.3617022e+04   2.3302288e+04   2.2997526e+04   2.2704975e+04   2.2426690e+04   2.2164496e+04   2.1919947e+04   2.1694290e+04   2.1488445e+04   2.1302980e+04   2.1138111e+04   2.0993703e+04   2.0869285e+04   2.0764071e+04   2.0676996e+04   2.0606754e+04   2.0551841e+04   2.0510612e+04   2.0481324e+04   2.0462198e+04   2.0451462e+04   2.0447407e+04   2.0448420e+04   2.0453030e+04   2.0459930e+04   2.0467999e+04   2.0476316e+04   2.0484163e+04   2.0491019e+04   2.0496550e+04   2.0500592e+04   2.0503126e+04   2.0504255e+04   2.0504174e+04   2.0503142e+04   2.0501456e+04   2.0499426e+04   2.0497354e+04   2.0495516e+04   2.0494155e+04   2.0493469e+04   2.0493616e+04   2.0494717e+04   2.0496865e+04   2.0500143e+04   2.0504633e+04   2.0510445e+04   2.0517729e+04   2.0526696e+04   2.0537640e+04   2.0550943e+04   2.0567096e+04   2.0586697e+04   2.0610451e+04   2.0639171e+04   2.0673757e+04   2.0715182e+04   2.0764470e+04   2.0822662e+04   2.0890792e+04   2.0969846e+04   2.1060726e+04   2.1164220e+04   2.1280966e+04   2.1411417e+04   2.1555824e+04   2.1714211e+04   2.1886361e+04   2.2071816e+04   2.2269874e+04   2.2479605e+04   2.2699864e+04   2.2929317e+04   2.3166472e+04   2.3409717e+04   2.3657353e+04   2.3907638e+04   2.4158828e+04   2.4409214e+04   2.4657160e+04   2.4901139e+04   2.5139755e+04   2.5371773e+04   2.5596132e+04   2.5811955e+04   2.6018557e+04   2.6215441e+04   2.6402296e+04   2.6578981e+04   2.6745512e+04   2.6902048e+04   2.7048868e+04   2.7186351e+04   2.7314958e+04   2.7435207e+04   2.7547658e+04   2.7652893e+04   2.7751500e+04   2.7844062e+04   2.7931142e+04   2.8013275e+04   2.8090963e+04   2.8164669e+04   2.8234812e+04   2.8301771e+04   2.8365880e+04   2.8427430e+04   2.8486674e+04   2.8543829e+04   2.8599076e+04   2.8652567e+04   2.8704427e+04   2.8754759e+04   2.8803645e+04   2.8851150e+04   2.8897326e+04   2.8942214e+04   2.8985846e+04   2.9028247e+04
2.6735316e+04   2.6445922e+04   2.6145243e+04   2.5834804e+04   2.5516356e+04   2.5191854e+04   2.4863431e+04   2.4533363e+04   2.4204025e+04   2.3877851e+04   2.3557280e+04   2.3244706e+04   2.2942428e+04   2.2652594e+04   2.2377157e+04   2.2117828e+04   2.1876041e+04   2.1652918e+04   2.1449249e+04   2.1265482e+04   2.1101716e+04   2.0957712e+04   2.0832909e+04   2.0726451e+04   2.0637223e+04   2.0563893e+04   2.0504957e+04   2.0458794e+04   2.0423717e+04   2.0398022e+04   2.0380044e+04   2.0368197e+04   2.0361017e+04   2.0357196e+04   2.0355604e+04   2.0355306e+04   2.0355575e+04   2.0355883e+04   2.0355896e+04   2.0355462e+04   2.0354578e+04   2.0353376e+04   2.0352083e+04   2.0350994e+04   2.0350442e+04   2.0350766e+04   2.0352287e+04   2.0355285e+04   2.0359984e+04   2.0366539e+04   2.0375037e+04   2.0385495e+04   2.0397871e+04   2.0412076e+04   2.0427996e+04   2.0445511e+04   2.0464522e+04   2.0484973e+04   2.0506881e+04   2.0530351e+04   2.0555602e+04   2.0582979e+04   2.0612960e+04   2.0646161e+04   2.0683330e+04   2.0725337e+04   2.0773151e+04   2.0827822e+04   2.0890444e+04   2.0962123e+04   2.1043940e+04   2.1136907e+04   2.1241931e+04   2.1359773e+04   2.1491016e+04   2.1636034e+04   2.1794965e+04   2.1967702e+04   2.2153879e+04   2.2352872e+04   2.2563811e+04   2.2785593e+04   2.3016911e+04   2.3256281e+04   2.3502081e+04   2.3752590e+04   2.4006032e+04   2.4260615e+04   2.4514578e+04   2.4766227e+04   2.5013972e+04   2.5256356e+04   2.5492081e+04   2.5720029e+04   2.5939270e+04   2.6149070e+04   2.6348892e+04   2.6538388e+04   2.6717392e+04   2.6885899e+04   2.7044055e+04   2.7192132e+04   2.7330508e+04   2.7459649e+04   2.7580081e+04   2.7692376e+04   2.7797132e+04   2.7894954e+04   2.7986445e+04   2.8072187e+04   2.8152737e+04   2.8228617e+04   2.8300311e+04   2.8368259e+04   2.8432857e+04   2.8494459e+04   2.8553374e+04   2.8609871e+04   2.8664181e+04   2.8716502e+04   2.8766997e+04   2.8815805e+04   2.8863041e+04   2.8908796e+04   2.8953146e+04   2.8996153e+04   2.9037866e+04   2.9078325e+04   2.9117562e+04
2.6681866e+04   2.6390171e+04   2.6087547e+04   2.5775573e+04   2.5456044e+04   2.5130950e+04   2.4802447e+04   2.4472819e+04   2.4144437e+04   2.3819710e+04   2.3501037e+04   2.3190756e+04   2.2891089e+04   2.2604096e+04   2.2331627e+04   2.2075278e+04   2.1836359e+04   2.1615866e+04   2.1414459e+04   2.1232461e+04   2.1069852e+04   2.0926286e+04   2.0801108e+04   2.0693389e+04   2.0601961e+04   2.0525460e+04   2.0462382e+04   2.0411126e+04   2.0370055e+04   2.0337544e+04   2.0312027e+04   2.0292045e+04   2.0276281e+04   2.0263592e+04   2.0253028e+04   2.0243845e+04   2.0235509e+04   2.0227693e+04   2.0220257e+04   2.0213233e+04   2.0206796e+04   2.0201232e+04   2.0196904e+04   2.0194220e+04   2.0193596e+04   2.0195425e+04   2.0200050e+04   2.0207741e+04   2.0218680e+04   2.0232949e+04   2.0250531e+04   2.0271311e+04   2.0295094e+04   2.0321617e+04   2.0350575e+04   2.0381651e+04   2.0414538e+04   2.0448977e+04   2.0484785e+04   2.0521880e+04   2.0560307e+04   2.0600256e+04   2.0642073e+04   2.0686268e+04   2.0733508e+04   2.0784610e+04   2.0840519e+04   2.0902285e+04   2.0971029e+04   2.1047905e+04   2.1134059e+04   2.1230587e+04   2.1338489e+04   2.1458630e+04   2.1591697e+04   2.1738169e+04   2.1898290e+04   2.2072046e+04   2.2259159e+04   2.2459080e+04   2.2671002e+04   2.2893871e+04   2.3126416e+04   2.3367174e+04   2.3614531e+04   2.3866765e+04   2.4122082e+04   2.4378672e+04   2.4634741e+04   2.4888560e+04   2.5138501e+04   2.5383067e+04   2.5620919e+04   2.5850900e+04   2.6072042e+04   2.6283579e+04   2.6484944e+04   2.6675766e+04   2.6855856e+04   2.7025196e+04   2.7183922e+04   2.7332300e+04   2.7470707e+04   2.7599610e+04   2.7719542e+04   2.7831084e+04   2.7934843e+04   2.8031439e+04   2.8121485e+04   2.8205581e+04   2.8284299e+04   2.8358176e+04   2.8427711e+04   2.8493360e+04   2.8555534e+04   2.8614600e+04   2.8670882e+04   2.8724662e+04   2.8776183e+04   2.8825654e+04   2.8873251e+04   2.8919122e+04   2.8963390e+04   2.9006157e+04   2.9047507e+04   2.9087510e+04   2.9126223e+04   2.9163691e+04   2.9199954e+04
2.6631321e+04   2.6337517e+04   2.6033144e+04   2.5719829e+04   2.5399412e+04   2.5073916e+04   2.4745520e+04   2.4416517e+04   2.4089268e+04   2.3766161e+04   2.3449554e+04   2.3141725e+04   2.2844823e+04   2.2560818e+04   2.2291454e+04   2.2038213e+04   2.1802280e+04   2.1584523e+04   2.1385472e+04   2.1205323e+04   2.1043935e+04   2.0900851e+04   2.0775322e+04   2.0666342e+04   2.0572686e+04   2.0492958e+04   2.0425647e+04   2.0369173e+04   2.0321946e+04   2.0282413e+04   2.0249112e+04   2.0220707e+04   2.0196029e+04   2.0174100e+04   2.0154150e+04   2.0135630e+04   2.0118207e+04   2.0101753e+04   2.0086331e+04   2.0072166e+04   2.0059613e+04   2.0049125e+04   2.0041212e+04   2.0036401e+04   2.0035203e+04   2.0038076e+04   2.0045398e+04   2.0057440e+04   2.0074352e+04   2.0096155e+04   2.0122737e+04   2.0153865e+04   2.0189198e+04   2.0228307e+04   2.0270705e+04   2.0315879e+04   2.0363323e+04   2.0412574e+04   2.0463247e+04   2.0515069e+04   2.0567905e+04   2.0621780e+04   2.0676896e+04   2.0733642e+04   2.0792585e+04   2.0854468e+04   2.0920189e+04   2.0990772e+04   2.1067337e+04   2.1151059e+04   2.1243123e+04   2.1344679e+04   2.1456798e+04   2.1580419e+04   2.1716316e+04   2.1865055e+04   2.2026966e+04   2.2202121e+04   2.2390322e+04   2.2591095e+04   2.2803697e+04   2.3027132e+04   2.3260172e+04   2.3501392e+04   2.3749206e+04   2.4001906e+04   2.4257711e+04   2.4514807e+04   2.4771398e+04   2.5025744e+04   2.5276202e+04   2.5521258e+04   2.5759554e+04   2.5989913e+04   2.6211348e+04   2.6423075e+04   2.6624510e+04   2.6815267e+04   2.6995144e+04   2.7164115e+04   2.7322308e+04   2.7469984e+04   2.7607518e+04   2.7735377e+04   2.7854097e+04   2.7964263e+04   2.8066487e+04   2.8161396e+04   2.8249613e+04   2.8331745e+04   2.8408372e+04   2.8480044e+04   2.8547268e+04   2.8610511e+04   2.8670195e+04   2.8726695e+04   2.8780345e+04   2.8831437e+04   2.8880223e+04   2.8926920e+04   2.8971713e+04   2.9014758e+04   2.9056185e+04   2.9096104e+04   2.9134606e+04   2.9171766e+04   2.9207646e+04   2.9242300e+04   2.9275771e+04
2.6584480e+04   2.6288822e+04   2.5982952e+04   2.5668548e+04   2.5347491e+04   2.5021837e+04   2.4693786e+04   2.4365637e+04   2.4039744e+04   2.3718469e+04   2.3404130e+04   2.3098945e+04   2.2804990e+04   2.2524142e+04   2.2258041e+04   2.2008055e+04   2.1775244e+04   2.1560345e+04   2.1363761e+04   2.1185557e+04   2.1025471e+04   2.0882936e+04   2.0757106e+04   2.0646894e+04   2.0551018e+04   2.0468048e+04   2.0396463e+04   2.0334701e+04   2.0281217e+04   2.0234531e+04   2.0193279e+04   2.0156248e+04   2.0122416e+04   2.0090970e+04   2.0061324e+04   2.0033121e+04   2.0006231e+04   1.9980733e+04   1.9956894e+04   1.9935138e+04   1.9916008e+04   1.9900130e+04   1.9888166e+04   1.9880775e+04   1.9878573e+04   1.9882092e+04   1.9891754e+04   1.9907843e+04   1.9930489e+04   1.9959661e+04   1.9995168e+04   2.0036665e+04   2.0083676e+04   2.0135615e+04   2.0191821e+04   2.0251592e+04   2.0314225e+04   2.0379055e+04   2.0445498e+04   2.0513085e+04   2.0581495e+04   2.0650580e+04   2.0720388e+04   2.0791166e+04   2.0863368e+04   2.0937642e+04   2.1014814e+04   2.1095857e+04   2.1181866e+04   2.1274006e+04   2.1373474e+04   2.1481450e+04   2.1599043e+04   2.1727249e+04   2.1866903e+04   2.2018639e+04   2.2182861e+04   2.2359716e+04   2.2549079e+04   2.2750547e+04   2.2963446e+04   2.3186844e+04   2.3419569e+04   2.3660250e+04   2.3907342e+04   2.4159178e+04   2.4414007e+04   2.4670041e+04   2.4925504e+04   2.5178671e+04   2.5427907e+04   2.5671705e+04   2.5908711e+04   2.6137746e+04   2.6357823e+04   2.6568154e+04   2.6768150e+04   2.6957420e+04   2.7135759e+04   2.7303136e+04   2.7459672e+04   2.7605625e+04   2.7741370e+04   2.7867368e+04   2.7984156e+04   2.8092316e+04   2.8192463e+04   2.8285224e+04   2.8371223e+04   2.8451071e+04   2.8525351e+04   2.8594617e+04   2.8659380e+04   2.8720112e+04   2.8777239e+04   2.8831143e+04   2.8882163e+04   2.8930596e+04   2.8976701e+04   2.9020699e+04   2.9062782e+04   2.9103111e+04   2.9141821e+04   2.9179029e+04   2.9214828e+04   2.9249300e+04   2.9282513e+04   2.9314522e+04   2.9345377e+04
2.6542149e+04   2.6244948e+04   2.5937893e+04   2.5622709e+04   2.5301317e+04   2.4975804e+04   2.4648387e+04   2.4321370e+04   2.3997100e+04   2.3677912e+04   2.3366081e+04   2.3063767e+04   2.2772969e+04   2.2495475e+04   2.2232822e+04   2.1986259e+04   2.1756727e+04   2.1544832e+04   2.1350846e+04   2.1174708e+04   2.1016035e+04   2.0874147e+04   2.0748101e+04   2.0636731e+04   2.0538695e+04   2.0452528e+04   2.0376697e+04   2.0309657e+04   2.0249904e+04   2.0196029e+04   2.0146764e+04   2.0101020e+04   2.0057918e+04   2.0016809e+04   1.9977289e+04   1.9939195e+04   1.9902601e+04   1.9867793e+04   1.9835246e+04   1.9805584e+04   1.9779544e+04   1.9757929e+04   1.9741563e+04   1.9731240e+04   1.9727689e+04   1.9731527e+04   1.9743229e+04   1.9763101e+04   1.9791265e+04   1.9827650e+04   1.9871992e+04   1.9923850e+04   1.9982620e+04   2.0047571e+04   2.0117874e+04   2.0192646e+04   2.0270993e+04   2.0352053e+04   2.0435041e+04   2.0519292e+04   2.0604294e+04   2.0689721e+04   2.0775452e+04   2.0861584e+04   2.0948437e+04   2.1036546e+04   2.1126642e+04   2.1219626e+04   2.1316538e+04   2.1418511e+04   2.1526726e+04   2.1642362e+04   2.1766547e+04   2.1900306e+04   2.2044515e+04   2.2199860e+04   2.2366803e+04   2.2545555e+04   2.2736057e+04   2.2937980e+04   2.3150717e+04   2.3373408e+04   2.3604951e+04   2.3844038e+04   2.4089190e+04   2.4338796e+04   2.4591159e+04   2.4844542e+04   2.5097212e+04   2.5347483e+04   2.5593754e+04   2.5834546e+04   2.6068530e+04   2.6294546e+04   2.6511622e+04   2.6718981e+04   2.6916042e+04   2.7102419e+04   2.7277910e+04   2.7442480e+04   2.7596252e+04   2.7739480e+04   2.7872532e+04   2.7995868e+04   2.8110017e+04   2.8215557e+04   2.8313097e+04   2.8403259e+04   2.8486665e+04   2.8563919e+04   2.8635605e+04   2.8702271e+04   2.8764430e+04   2.8822551e+04   2.8877062e+04   2.8928344e+04   2.8976739e+04   2.9022545e+04   2.9066023e+04   2.9107398e+04   2.9146864e+04   2.9184584e+04   2.9220699e+04   2.9255327e+04   2.9288566e+04   2.9320502e+04   2.9351204e+04   2.9380732e+04   2.9409139e+04
2.6505118e+04   2.6206746e+04   2.5898878e+04   2.5583282e+04   2.5261916e+04   2.4936895e+04   2.4610453e+04   2.4284897e+04   2.3962563e+04   2.3645757e+04   2.3336713e+04   2.3037531e+04   2.2750135e+04   2.2476222e+04   2.2217226e+04   2.1974285e+04   2.1748213e+04   2.1539493e+04   2.1348268e+04   2.1174350e+04   2.1017235e+04   2.0876135e+04   2.0750009e+04   2.0637613e+04   2.0537545e+04   2.0448303e+04   2.0368342e+04   2.0296131e+04   2.0230208e+04   2.0169232e+04   2.0112028e+04   2.0057627e+04   2.0005290e+04   1.9954532e+04   1.9905128e+04   1.9857107e+04   1.9810744e+04   1.9766533e+04   1.9725154e+04   1.9687436e+04   1.9654309e+04   1.9626757e+04   1.9605767e+04   1.9592278e+04   1.9587133e+04   1.9591042e+04   1.9604542e+04   1.9627971e+04   1.9661450e+04   1.9704879e+04   1.9757933e+04   1.9820083e+04   1.9890611e+04   1.9968649e+04   2.0053211e+04   2.0143242e+04   2.0237661e+04   2.0335415e+04   2.0435523e+04   2.0537123e+04   2.0639511e+04   2.0742175e+04   2.0844818e+04   2.0947376e+04   2.1050022e+04   2.1153157e+04   2.1257401e+04   2.1363559e+04   2.1472594e+04   2.1585581e+04   2.1703659e+04   2.1827985e+04   2.1959679e+04   2.2099774e+04   2.2249168e+04   2.2408579e+04   2.2578515e+04   2.2759241e+04   2.2950760e+04   2.3152811e+04   2.3364861e+04   2.3586126e+04   2.3815584e+04   2.4052006e+04   2.4293992e+04   2.4540010e+04   2.4788439e+04   2.5037611e+04   2.5285861e+04   2.5531565e+04   2.5773179e+04   2.6009273e+04   2.6238562e+04   2.6459925e+04   2.6672418e+04   2.6875292e+04   2.7067983e+04   2.7250119e+04   2.7421505e+04   2.7582113e+04   2.7732064e+04   2.7871610e+04   2.8001113e+04   2.8121025e+04   2.8231865e+04   2.8334203e+04   2.8428636e+04   2.8515777e+04   2.8596236e+04   2.8670609e+04   2.8739470e+04   2.8803360e+04   2.8862785e+04   2.8918207e+04   2.8970050e+04   2.9018693e+04   2.9064473e+04   2.9107687e+04   2.9148596e+04   2.9187423e+04   2.9224363e+04   2.9259582e+04   2.9293220e+04   2.9325397e+04   2.9356215e+04   2.9385759e+04   2.9414102e+04   2.9441307e+04   2.9467427e+04
2.6474154e+04   2.6175040e+04   2.5866786e+04   2.5551202e+04   2.5230279e+04   2.4906156e+04   2.4581081e+04   2.4257362e+04   2.3937320e+04   2.3623236e+04   2.3317296e+04   2.3021544e+04   2.2737826e+04   2.2467753e+04   2.2212656e+04   2.1973561e+04   2.1751163e+04   2.1545822e+04   2.1357553e+04   2.1186047e+04   2.1030682e+04   2.0890562e+04   2.0764554e+04   2.0651333e+04   2.0549440e+04   2.0457338e+04   2.0373469e+04   2.0296315e+04   2.0224452e+04   2.0156607e+04   2.0091694e+04   2.0028860e+04   1.9967505e+04   1.9907300e+04   1.9848195e+04   1.9790409e+04   1.9734412e+04   1.9680903e+04   1.9630765e+04   1.9585027e+04   1.9544814e+04   1.9511289e+04   1.9485603e+04   1.9468838e+04   1.9461962e+04   1.9465779e+04   1.9480892e+04   1.9507680e+04   1.9546273e+04   1.9596548e+04   1.9658132e+04   1.9730417e+04   1.9812584e+04   1.9903637e+04   2.0002445e+04   2.0107789e+04   2.0218414e+04   2.0333081e+04   2.0450616e+04   2.0569965e+04   2.0690231e+04   2.0810715e+04   2.0930939e+04   2.1050670e+04   2.1169918e+04   2.1288943e+04   2.1408232e+04   2.1528478e+04   2.1650544e+04   2.1775425e+04   2.1904199e+04   2.2037977e+04   2.2177849e+04   2.2324836e+04   2.2479837e+04   2.2643592e+04   2.2816638e+04   2.2999285e+04   2.3191593e+04   2.3393367e+04   2.3604150e+04   2.3823240e+04   2.4049702e+04   2.4282402e+04   2.4520032e+04   2.4761155e+04   2.5004245e+04   2.5247725e+04   2.5490019e+04   2.5729585e+04   2.5964954e+04   2.6194768e+04   2.6417802e+04   2.6632988e+04   2.6839431e+04   2.7036413e+04   2.7223405e+04   2.7400052e+04   2.7566176e+04   2.7721754e+04   2.7866911e+04   2.8001895e+04   2.8127061e+04   2.8242851e+04   2.8349771e+04   2.8448377e+04   2.8539250e+04   2.8622987e+04   2.8700182e+04   2.8771417e+04   2.8837250e+04   2.8898209e+04   2.8954788e+04   2.9007439e+04   2.9056576e+04   2.9102571e+04   2.9145754e+04   2.9186417e+04   2.9224817e+04   2.9261175e+04   2.9295683e+04   2.9328506e+04   2.9359783e+04   2.9389636e+04   2.9418165e+04   2.9445458e+04   2.9471588e+04   2.9496619e+04   2.9520606e+04
2.6449981e+04   2.6150609e+04   2.5842452e+04   2.5527358e+04   2.5207346e+04   2.4884578e+04   2.4561311e+04   2.4239851e+04   2.3922503e+04   2.3611518e+04   2.3309039e+04   2.3017048e+04   2.2737320e+04   2.2471376e+04   2.2220449e+04   2.1985457e+04   2.1766979e+04   2.1565253e+04   2.1380176e+04   2.1211318e+04   2.1057945e+04   2.0919057e+04   2.0793431e+04   2.0679667e+04   2.0576250e+04   2.0481609e+04   2.0394172e+04   2.0312435e+04   2.0235012e+04   2.0160691e+04   2.0088476e+04   2.0017622e+04   1.9947662e+04   1.9878421e+04   1.9810014e+04   1.9742842e+04   1.9677568e+04   1.9615084e+04   1.9556474e+04   1.9502960e+04   1.9455853e+04   1.9416495e+04   1.9386198e+04   1.9366188e+04   1.9357554e+04   1.9361196e+04   1.9377792e+04   1.9407762e+04   1.9451253e+04   1.9508130e+04   1.9577979e+04   1.9660127e+04   1.9753662e+04   1.9857474e+04   1.9970298e+04   2.0090765e+04   2.0217453e+04   2.0348947e+04   2.0483892e+04   2.0621044e+04   2.0759320e+04   2.0897832e+04   2.1035921e+04   2.1173176e+04   2.1309444e+04   2.1444828e+04   2.1579670e+04   2.1714535e+04   2.1850173e+04   2.1987479e+04   2.2127450e+04   2.2271129e+04   2.2419561e+04   2.2573735e+04   2.2734539e+04   2.2902715e+04   2.3078820e+04   2.3263201e+04   2.3455969e+04   2.3656990e+04   2.3865888e+04   2.4082044e+04   2.4304621e+04   2.4532585e+04   2.4764737e+04   2.4999749e+04   2.5236205e+04   2.5472638e+04   2.5707576e+04   2.5939577e+04   2.6167269e+04   2.6389377e+04   2.6604754e+04   2.6812400e+04   2.7011476e+04   2.7201314e+04   2.7381420e+04   2.7551470e+04   2.7711302e+04   2.7860905e+04   2.8000407e+04   2.8130052e+04   2.8250188e+04   2.8361243e+04   2.8463708e+04   2.8558119e+04   2.8645038e+04   2.8725040e+04   2.8798700e+04   2.8866577e+04   2.8929212e+04   2.8987113e+04   2.9040759e+04   2.9090586e+04   2.9136995e+04   2.9180345e+04   2.9220959e+04   2.9259120e+04   2.9295076e+04   2.9329046e+04   2.9361215e+04   2.9391747e+04   2.9420779e+04   2.9448430e+04   2.9474800e+04   2.9499976e+04   2.9524033e+04   2.9547033e+04   2.9569033e+04
2.6433266e+04   2.6134171e+04   2.5826645e+04   2.5512569e+04   2.5193987e+04   2.4873077e+04   2.4552103e+04   2.4233366e+04   2.3919153e+04   2.3611685e+04   2.3313057e+04   2.3025195e+04   2.2749798e+04   2.2488303e+04   2.2241849e+04   2.2011248e+04   2.1796967e+04   2.1599132e+04   2.1417522e+04   2.1251594e+04   2.1100509e+04   2.0963169e+04   2.0838263e+04   2.0724323e+04   2.0619782e+04   2.0523033e+04   2.0432497e+04   2.0346680e+04   2.0264233e+04   2.0184004e+04   2.0105078e+04   2.0026817e+04   1.9948879e+04   1.9871231e+04   1.9794149e+04   1.9718205e+04   1.9644242e+04   1.9573339e+04   1.9506766e+04   1.9445932e+04   1.9392326e+04   1.9347460e+04   1.9312800e+04   1.9289712e+04   1.9279402e+04   1.9282869e+04   1.9300862e+04   1.9333849e+04   1.9381999e+04   1.9445170e+04   1.9522920e+04   1.9614518e+04   1.9718972e+04   1.9835073e+04   1.9961434e+04   2.0096548e+04   2.0238842e+04   2.0386738e+04   2.0538707e+04   2.0693328e+04   2.0849336e+04   2.1005661e+04   2.1161464e+04   2.1316158e+04   2.1469420e+04   2.1621191e+04   2.1771662e+04   2.1921258e+04   2.2070600e+04   2.2220472e+04   2.2371772e+04   2.2525465e+04   2.2682529e+04   2.2843909e+04   2.3010465e+04   2.3182931e+04   2.3361874e+04   2.3547667e+04   2.3740468e+04   2.3940204e+04   2.4146574e+04   2.4359050e+04   2.4576895e+04   2.4799185e+04   2.5024839e+04   2.5252648e+04   2.5481320e+04   2.5709512e+04   2.5935870e+04   2.6159067e+04   2.6377839e+04   2.6591012e+04   2.6797527e+04   2.6996463e+04   2.7187049e+04   2.7368674e+04   2.7540887e+04   2.7703396e+04   2.7856064e+04   2.7998893e+04   2.8132013e+04   2.8255666e+04   2.8370191e+04   2.8475999e+04   2.8573562e+04   2.8663395e+04   2.8746036e+04   2.8822035e+04   2.8891940e+04   2.8956287e+04   2.9015592e+04   2.9070343e+04   2.9120994e+04   2.9167967e+04   2.9211643e+04   2.9252368e+04   2.9290451e+04   2.9326165e+04   2.9359749e+04   2.9391415e+04   2.9421342e+04   2.9449688e+04   2.9476587e+04   2.9502155e+04   2.9526492e+04   2.9549682e+04   2.9571798e+04   2.9592904e+04   2.9613055e+04
2.6424606e+04   2.6126369e+04   2.5820054e+04   2.5507567e+04   2.5190977e+04   2.4872471e+04   2.4554316e+04   2.4238806e+04   2.3928207e+04   2.3624705e+04   2.3330353e+04   2.3047014e+04   2.2776319e+04   2.2519624e+04   2.2277973e+04   2.2052079e+04   2.1842307e+04   2.1648671e+04   2.1470843e+04   2.1308176e+04   2.1159730e+04   2.1024315e+04   2.0900543e+04   2.0786881e+04   2.0681713e+04   2.0583405e+04   2.0490366e+04   2.0401117e+04   2.0314343e+04   2.0228947e+04   2.0144093e+04   2.0059240e+04   1.9974163e+04   1.9888963e+04   1.9804062e+04   1.9720192e+04   1.9638364e+04   1.9559827e+04   1.9486027e+04   1.9418545e+04   1.9359036e+04   1.9309168e+04   1.9270553e+04   1.9244688e+04   1.9232892e+04   1.9236256e+04   1.9255600e+04   1.9291443e+04   1.9343976e+04   1.9413060e+04   1.9498230e+04   1.9598710e+04   1.9713442e+04   1.9841128e+04   1.9980277e+04   2.0129259e+04   2.0286366e+04   2.0449869e+04   2.0618084e+04   2.0789424e+04   2.0962451e+04   2.1135925e+04   2.1308831e+04   2.1480412e+04   2.1650176e+04   2.1817899e+04   2.1983618e+04   2.2147611e+04   2.2310364e+04   2.2472537e+04   2.2634920e+04   2.2798384e+04   2.2963833e+04   2.3132152e+04   2.3304163e+04   2.3480580e+04   2.3661971e+04   2.3848729e+04   2.4041051e+04   2.4238923e+04   2.4442117e+04   2.4650196e+04   2.4862528e+04   2.5078304e+04   2.5296563e+04   2.5516230e+04   2.5736141e+04   2.5955088e+04   2.6171846e+04   2.6385215e+04   2.6594048e+04   2.6797280e+04   2.6993952e+04   2.7183230e+04   2.7364419e+04   2.7536969e+04   2.7700479e+04   2.7854694e+04   2.7999502e+04   2.8134920e+04   2.8261082e+04   2.8378228e+04   2.8486684e+04   2.8586845e+04   2.8679161e+04   2.8764122e+04   2.8842239e+04   2.8914032e+04   2.8980022e+04   2.9040716e+04   2.9096603e+04   2.9148144e+04   2.9195771e+04   2.9239881e+04   2.9280840e+04   2.9318974e+04   2.9354576e+04   2.9387908e+04   2.9419199e+04   2.9448647e+04   2.9476429e+04   2.9502694e+04   2.9527572e+04   2.9551175e+04   2.9573599e+04   2.9594927e+04   2.9615231e+04   2.9634572e+04   2.9653006e+04
2.6424515e+04   2.6127756e+04   2.5823270e+04   2.5512986e+04   2.5198985e+04   2.4883465e+04   2.4568691e+04   2.4256943e+04   2.3950466e+04   2.3651411e+04   2.3361784e+04   2.3083391e+04   2.2817795e+04   2.2566271e+04   2.2329779e+04   2.2108937e+04   2.1904011e+04   2.1714915e+04   2.1541223e+04   2.1382189e+04   2.1236782e+04   2.1103732e+04   2.0981579e+04   2.0868731e+04   2.0763530e+04   2.0664318e+04   2.0569498e+04   2.0477604e+04   2.0387352e+04   2.0297699e+04   2.0207881e+04   2.0117446e+04   2.0026275e+04   1.9934590e+04   1.9842948e+04   1.9752223e+04   1.9663577e+04   1.9578416e+04   1.9498341e+04   1.9425086e+04   1.9360459e+04   1.9306269e+04   1.9264260e+04   1.9236046e+04   1.9223049e+04   1.9226448e+04   1.9247130e+04   1.9285660e+04   1.9342259e+04   1.9416792e+04   1.9508781e+04   1.9617414e+04   1.9741580e+04   1.9879911e+04   2.0030824e+04   2.0192586e+04   2.0363369e+04   2.0541317e+04   2.0724602e+04   2.0911489e+04   2.1100386e+04   2.1289891e+04   2.1478828e+04   2.1666275e+04   2.1851577e+04   2.2034352e+04   2.2214481e+04   2.2392094e+04   2.2567537e+04   2.2741343e+04   2.2914184e+04   2.3086831e+04   2.3260102e+04   2.3434816e+04   2.3611746e+04   2.3791576e+04   2.3974868e+04   2.4162028e+04   2.4353286e+04   2.4548683e+04   2.4748061e+04   2.4951075e+04   2.5157195e+04   2.5365729e+04   2.5575843e+04   2.5786596e+04   2.5996961e+04   2.6205868e+04   2.6412229e+04   2.6614977e+04   2.6813089e+04   2.7005617e+04   2.7191706e+04   2.7370615e+04   2.7541729e+04   2.7704564e+04   2.7858771e+04   2.8004138e+04   2.8140576e+04   2.8268120e+04   2.8386908e+04   2.8497175e+04   2.8599236e+04   2.8693467e+04   2.8780295e+04   2.8860181e+04   2.8933608e+04   2.9001065e+04   2.9063040e+04   2.9120010e+04   2.9172433e+04   2.9220743e+04   2.9265345e+04   2.9306613e+04   2.9344889e+04   2.9380481e+04   2.9413666e+04   2.9444690e+04   2.9473770e+04   2.9501094e+04   2.9526829e+04   2.9551117e+04   2.9574084e+04   2.9595835e+04   2.9616464e+04   2.9636051e+04   2.9654664e+04   2.9672364e+04   2.9689206e+04
2.6433413e+04   2.6138785e+04   2.5836778e+04   2.5529338e+04   2.5218557e+04   2.4906634e+04   2.4595829e+04   2.4288405e+04   2.3986583e+04   2.3692477e+04   2.3408047e+04   2.3135042e+04   2.2874959e+04   2.2628999e+04   2.2398039e+04   2.2182612e+04   2.1982893e+04   2.1798706e+04   2.1629532e+04   2.1474540e+04   2.1332619e+04   2.1202424e+04   2.1082435e+04   2.0971010e+04   2.0866455e+04   2.0767093e+04   2.0671324e+04   2.0577695e+04   2.0484954e+04   2.0392107e+04   2.0298452e+04   2.0203621e+04   2.0107587e+04   2.0010679e+04   1.9913573e+04   1.9817268e+04   1.9723057e+04   1.9632481e+04   1.9547276e+04   1.9469312e+04   1.9400525e+04   1.9342847e+04   1.9298137e+04   1.9268112e+04   1.9254287e+04   1.9257914e+04   1.9279942e+04   1.9320982e+04   1.9381281e+04   1.9460717e+04   1.9558802e+04   1.9674703e+04   1.9807268e+04   1.9955070e+04   2.0116459e+04   2.0289615e+04   2.0472612e+04   2.0663484e+04   2.0860283e+04   2.1061146e+04   2.1264344e+04   2.1468331e+04   2.1671784e+04   2.1873629e+04   2.2073061e+04   2.2269544e+04   2.2462810e+04   2.2652844e+04   2.2839853e+04   2.3024240e+04   2.3206559e+04   2.3387474e+04   2.3567711e+04   2.3748017e+04   2.3929107e+04   2.4111633e+04   2.4296139e+04   2.4483039e+04   2.4672592e+04   2.4864885e+04   2.5059831e+04   2.5257169e+04   2.5456471e+04   2.5657162e+04   2.5858534e+04   2.6059779e+04   2.6260012e+04   2.6458301e+04   2.6653698e+04   2.6845271e+04   2.7032124e+04   2.7213428e+04   2.7388437e+04   2.7556505e+04   2.7717099e+04   2.7869803e+04   2.8014323e+04   2.8150486e+04   2.8278233e+04   2.8397612e+04   2.8508769e+04   2.8611932e+04   2.8707403e+04   2.8795538e+04   2.8876741e+04   2.8951444e+04   2.9020096e+04   2.9083154e+04   2.9141075e+04   2.9194301e+04   2.9243260e+04   2.9288354e+04   2.9329961e+04   2.9368430e+04   2.9404078e+04   2.9437194e+04   2.9468036e+04   2.9496835e+04   2.9523792e+04   2.9549088e+04   2.9572876e+04   2.9595293e+04   2.9616456e+04   2.9636467e+04   2.9655415e+04   2.9673374e+04   2.9690414e+04   2.9706590e+04   2.9721956e+04
