4.7760048e+04   4.7524131e+04   4.7271550e+04   4.7003043e+04   4.6719724e+04   4.6423093e+04   4.6115048e+04   4.5797875e+04   4.5474227e+04   4.5147097e+04   4.4819763e+04   4.4495736e+04   4.4178684e+04   4.3872350e+04   4.3580469e+04   4.3306665e+04   4.3054365e+04   4.2826699e+04   4.2626415e+04   4.2455800e+04   4.2316615e+04   4.2210039e+04   4.2136641e+04   4.2096357e+04   4.2088499e+04   4.2111774e+04   4.2164325e+04   4.2243788e+04   4.2347362e+04   4.2471895e+04   4.2613968e+04   4.2769991e+04   4.2936302e+04   4.3109254e+04   4.3285304e+04   4.3461091e+04   4.3633505e+04   4.3799739e+04   4.3957333e+04   4.4104201e+04   4.4238648e+04   4.4359368e+04   4.4465440e+04   4.4556304e+04   4.4631733e+04   4.4691802e+04   4.4736848e+04   4.4767428e+04   4.4784279e+04   4.4788274e+04   4.4780385e+04   4.4761644e+04   4.4733116e+04   4.4695863e+04   4.4650927e+04   4.4599309e+04   4.4541951e+04   4.4479731e+04   4.4413451e+04   4.4343837e+04   4.4271540e+04   4.4197130e+04   4.4121109e+04   4.4043911e+04   4.3965905e+04   4.3887409e+04   4.3808690e+04   4.3729974e+04   4.3651452e+04   4.3573285e+04   4.3495612e+04   4.3418553e+04   4.3342215e+04   4.3266697e+04   4.3192091e+04   4.3118490e+04   4.3045983e+04   4.2974665e+04   4.2904633e+04   4.2835991e+04   4.2768846e+04   4.2703317e+04   4.2639523e+04   4.2577596e+04   4.2517670e+04   4.2459886e+04   4.2404393e+04   4.2351340e+04   4.2300883e+04   4.2253180e+04   4.2208391e+04   4.2166676e+04   4.2128197e+04   4.2093115e+04   4.2061587e+04   4.2033770e+04   4.2009816e+04   4.1989876e+04   4.1974092e+04   4.1962604e+04   4.1955543e+04   4.1953036e+04   4.1955199e+04   4.1962142e+04   4.1973967e+04   4.1990762e+04   4.2012608e+04   4.2039575e+04   4.2071718e+04   4.2109083e+04   4.2151700e+04   4.2199587e+04   4.2252747e+04   4.2311168e+04   4.2374823e+04   4.2443669e+04   4.2517647e+04   4.2596683e+04   4.2680686e+04   4.2769550e+04   4.2863152e+04   4.2961355e+04   4.3064008e+04   4.3170942e+04   4.3281978e+04   4.3396921e+04   4.3515566e+04   4.3637697e+04   4.3763085e+04
4.7666056e+04   4.7419362e+04   4.7155217e+04   4.6874395e+04   4.6578063e+04   4.6267795e+04   4.5945580e+04   4.5613813e+04   4.5275278e+04   4.4933109e+04   4.4590744e+04   4.4251863e+04   4.3920310e+04   4.3600011e+04   4.3294879e+04   4.3008714e+04   4.2745108e+04   4.2507342e+04   4.2298298e+04   4.2120373e+04   4.1975414e+04   4.1864659e+04   4.1788704e+04   4.1747484e+04   4.1740278e+04   4.1765734e+04   4.1821905e+04   4.1906317e+04   4.2016037e+04   4.2147760e+04   4.2297906e+04   4.2462715e+04   4.2638350e+04   4.2820991e+04   4.3006927e+04   4.3192638e+04   4.3374866e+04   4.3550672e+04   4.3717480e+04   4.3873106e+04   4.4015776e+04   4.4144124e+04   4.4257186e+04   4.4354377e+04   4.4435464e+04   4.4500525e+04   4.4549916e+04   4.4584224e+04   4.4604220e+04   4.4610823e+04   4.4605051e+04   4.4587988e+04   4.4560749e+04   4.4524449e+04   4.4480179e+04   4.4428985e+04   4.4371857e+04   4.4309710e+04   4.4243384e+04   4.4173637e+04   4.4101147e+04   4.4026509e+04   4.3950243e+04   4.3872800e+04   4.3794562e+04   4.3715856e+04   4.3636957e+04   4.3558096e+04   4.3479465e+04   4.3401229e+04   4.3323527e+04   4.3246480e+04   4.3170193e+04   4.3094767e+04   4.3020293e+04   4.2946862e+04   4.2874567e+04   4.2803503e+04   4.2733768e+04   4.2665469e+04   4.2598717e+04   4.2533631e+04   4.2470339e+04   4.2408972e+04   4.2349671e+04   4.2292581e+04   4.2237852e+04   4.2185640e+04   4.2136101e+04   4.2089395e+04   4.2045685e+04   4.2005130e+04   4.1967891e+04   4.1934128e+04   4.1903996e+04   4.1877649e+04   4.1855235e+04   4.1836900e+04   4.1822781e+04   4.1813013e+04   4.1807723e+04   4.1807030e+04   4.1811047e+04   4.1819878e+04   4.1833620e+04   4.1852357e+04   4.1876168e+04   4.1905116e+04   4.1939257e+04   4.1978633e+04   4.2023274e+04   4.2073196e+04   4.2128401e+04   4.2188878e+04   4.2254600e+04   4.2325523e+04   4.2401591e+04   4.2482728e+04   4.2568846e+04   4.2659837e+04   4.2755582e+04   4.2855942e+04   4.2960765e+04   4.3069884e+04   4.3183118e+04   4.3300274e+04   4.3421143e+04   4.3545509e+04   4.3673143e+04
4.7572468e+04   4.7314985e+04   4.7039262e+04   4.6746110e+04   4.6436749e+04   4.6112826e+04   4.5776420e+04   4.5430040e+04   4.5076595e+04   4.4719365e+04   4.4361947e+04   4.4008190e+04   4.3662115e+04   4.3327830e+04   4.3009427e+04   4.2710884e+04   4.2435957e+04   4.2188079e+04   4.1970265e+04   4.1785025e+04   4.1634291e+04   4.1519358e+04   4.1440852e+04   4.1398705e+04   4.1392167e+04   4.1419822e+04   4.1479639e+04   4.1569029e+04   4.1684926e+04   4.1823877e+04   4.1982139e+04   4.2155781e+04   4.2340791e+04   4.2533177e+04   4.2729059e+04   4.2924759e+04   4.3116870e+04   4.3302321e+04   4.3478420e+04   4.3642886e+04   4.3793865e+04   4.3929932e+04   4.4050080e+04   4.4153700e+04   4.4240550e+04   4.4310715e+04   4.4364569e+04   4.4402727e+04   4.4425998e+04   4.4435344e+04   4.4431831e+04   4.4416595e+04   4.4390801e+04   4.4355615e+04   4.4312179e+04   4.4261586e+04   4.4204868e+04   4.4142981e+04   4.4076802e+04   4.4007120e+04   4.3934639e+04   4.3859978e+04   4.3783675e+04   4.3706197e+04   4.3627937e+04   4.3549231e+04   4.3470359e+04   4.3391556e+04   4.3313019e+04   4.3234911e+04   4.3157373e+04   4.3080523e+04   4.3004469e+04   4.2929308e+04   4.2855133e+04   4.2782037e+04   4.2710111e+04   4.2639454e+04   4.2570167e+04   4.2502361e+04   4.2436151e+04   4.2371661e+04   4.2309025e+04   4.2248379e+04   4.2189871e+04   4.2133650e+04   4.2079872e+04   4.2028695e+04   4.1980283e+04   4.1934795e+04   4.1892396e+04   4.1853245e+04   4.1817503e+04   4.1785325e+04   4.1756864e+04   4.1732269e+04   4.1711681e+04   4.1695239e+04   4.1683075e+04   4.1675314e+04   4.1672075e+04   4.1673469e+04   4.1679603e+04   4.1690571e+04   4.1706464e+04   4.1727361e+04   4.1753332e+04   4.1784439e+04   4.1820733e+04   4.1862252e+04   4.1909025e+04   4.1961066e+04   4.2018377e+04   4.2080945e+04   4.2148745e+04   4.2221735e+04   4.2299859e+04   4.2383042e+04   4.2471199e+04   4.2564222e+04   4.2661994e+04   4.2764378e+04   4.2871222e+04   4.2982362e+04   4.3097615e+04   4.3216790e+04   4.3339679e+04   4.3466064e+04   4.3595716e+04
4.7479593e+04   4.7211348e+04   4.6924074e+04   4.6618620e+04   4.6296258e+04   4.5958709e+04   4.5608143e+04   4.5247179e+04   4.4878855e+04   4.4506595e+04   4.4134153e+04   4.3765549e+04   4.3404981e+04   4.3056737e+04   4.2725089e+04   4.2414191e+04   4.2127964e+04   4.1869993e+04   4.1643427e+04   4.1450886e+04   4.1294387e+04   4.1175286e+04   4.1094235e+04   4.1051166e+04   4.1045298e+04   4.1075154e+04   4.1138615e+04   4.1232981e+04   4.1355055e+04   4.1501234e+04   4.1667611e+04   4.1850087e+04   4.2044477e+04   4.2246614e+04   4.2452453e+04   4.2658156e+04   4.2860170e+04   4.3055291e+04   4.3240712e+04   4.3414055e+04   4.3573387e+04   4.3717223e+04   4.3844515e+04   4.3954629e+04   4.4047316e+04   4.4122666e+04   4.4181072e+04   4.4223178e+04   4.4249831e+04   4.4262035e+04   4.4260906e+04   4.4247628e+04   4.4223420e+04   4.4189498e+04   4.4147052e+04   4.4097224e+04   4.4041089e+04   4.3979642e+04   4.3913794e+04   4.3844366e+04   4.3772088e+04   4.3697600e+04   4.3621460e+04   4.3544146e+04   4.3466064e+04   4.3387555e+04   4.3308906e+04   4.3230353e+04   4.3152094e+04   4.3074294e+04   4.2997090e+04   4.2920602e+04   4.2844936e+04   4.2770189e+04   4.2696454e+04   4.2623824e+04   4.2552395e+04   4.2482267e+04   4.2413547e+04   4.2346351e+04   4.2280802e+04   4.2217030e+04   4.2155177e+04   4.2095388e+04   4.2037817e+04   4.1982623e+04   4.1929969e+04   4.1880018e+04   4.1832936e+04   4.1788890e+04   4.1748043e+04   4.1710556e+04   4.1676586e+04   4.1646286e+04   4.1619802e+04   4.1597275e+04   4.1578840e+04   4.1564625e+04   4.1554751e+04   4.1549332e+04   4.1548477e+04   4.1552284e+04   4.1560849e+04   4.1574256e+04   4.1592585e+04   4.1615907e+04   4.1644285e+04   4.1677772e+04   4.1716415e+04   4.1760248e+04   4.1809296e+04   4.1863571e+04   4.1923075e+04   4.1987796e+04   4.2057708e+04   4.2132772e+04   4.2212932e+04   4.2298118e+04   4.2388244e+04   4.2483210e+04   4.2582898e+04   4.2687174e+04   4.2795889e+04   4.2908881e+04   4.3025972e+04   4.3146968e+04   4.3271664e+04   4.3399845e+04   4.3531280e+04
4.7387740e+04   4.7108796e+04   4.6810040e+04   4.6492355e+04   4.6157069e+04   4.5805971e+04   4.5441327e+04   4.5065862e+04   4.4682743e+04   4.4295536e+04   4.3908155e+04   4.3524786e+04   4.3149803e+04   4.2787675e+04   4.2442854e+04   4.2119665e+04   4.1822197e+04   4.1554185e+04   4.1318909e+04   4.1119100e+04   4.0956862e+04   4.0833607e+04   4.0750018e+04   4.0706025e+04   4.0700814e+04   4.0732851e+04   4.0799930e+04   4.0899240e+04   4.1027452e+04   4.1180815e+04   4.1355263e+04   4.1546527e+04   4.1750249e+04   4.1962093e+04   4.2177846e+04   4.2393513e+04   4.2605396e+04   4.2810159e+04   4.3004881e+04   4.3187088e+04   4.3354769e+04   4.3506379e+04   4.3640830e+04   4.3757464e+04   4.3856023e+04   4.3936605e+04   4.3999620e+04   4.4045742e+04   4.4075855e+04   4.4091007e+04   4.4092361e+04   4.4081152e+04   4.4058650e+04   4.4026121e+04   4.3984806e+04   4.3935891e+04   4.3880494e+04   4.3819650e+04   4.3754304e+04   4.3685306e+04   4.3613411e+04   4.3539280e+04   4.3463487e+04   4.3386522e+04   4.3308801e+04   4.3230670e+04   4.3152419e+04   4.3074286e+04   4.2996469e+04   4.2919130e+04   4.2842405e+04   4.2766414e+04   4.2691260e+04   4.2617039e+04   4.2543848e+04   4.2471779e+04   4.2400934e+04   4.2331417e+04   4.2263343e+04   4.2196834e+04   4.2132024e+04   4.2069055e+04   4.2008077e+04   4.1949249e+04   4.1892734e+04   4.1838703e+04   4.1787326e+04   4.1738778e+04   4.1693229e+04   4.1650849e+04   4.1611805e+04   4.1576257e+04   4.1544360e+04   4.1516259e+04   4.1492094e+04   4.1471997e+04   4.1456089e+04   4.1444487e+04   4.1437296e+04   4.1434616e+04   4.1436538e+04   4.1443146e+04   4.1454521e+04   4.1470731e+04   4.1491844e+04   4.1517918e+04   4.1549005e+04   4.1585149e+04   4.1626389e+04   4.1672754e+04   4.1724265e+04   4.1780931e+04   4.1842753e+04   4.1909718e+04   4.1981803e+04   4.2058970e+04   4.2141168e+04   4.2228328e+04   4.2320371e+04   4.2417198e+04   4.2518697e+04   4.2624738e+04   4.2735178e+04   4.2849856e+04   4.2968597e+04   4.3091213e+04   4.3217501e+04   4.3347247e+04   4.3480224e+04
4.7297211e+04   4.7007672e+04   4.6697544e+04   4.6367746e+04   4.6019656e+04   4.5655140e+04   4.5276549e+04   4.4886719e+04   4.4488943e+04   4.4086929e+04   4.3684746e+04   4.3286747e+04   4.2897481e+04   4.2521594e+04   4.2163716e+04   4.1828345e+04   4.1519731e+04   4.1241759e+04   4.0997842e+04   4.0790820e+04   4.0622880e+04   4.0495493e+04   4.0409370e+04   4.0364441e+04   4.0359862e+04   4.0394038e+04   4.0464679e+04   4.0568865e+04   4.0703137e+04   4.0863598e+04   4.1046023e+04   4.1245977e+04   4.1458931e+04   4.1680381e+04   4.1905949e+04   4.2131483e+04   4.2353143e+04   4.2567464e+04   4.2771411e+04   4.2962416e+04   4.3138389e+04   4.3297728e+04   4.3439305e+04   4.3562438e+04   4.3666861e+04   4.3752679e+04   4.3820322e+04   4.3870491e+04   4.3904109e+04   4.3922265e+04   4.3926171e+04   4.3917112e+04   4.3896409e+04   4.3865378e+04   4.3825308e+04   4.3777431e+04   4.3722906e+04   4.3662807e+04   4.3598111e+04   4.3529698e+04   4.3458345e+04   4.3384733e+04   4.3309451e+04   4.3232999e+04   4.3155799e+04   4.3078203e+04   4.3000501e+04   4.2922931e+04   4.2845688e+04   4.2768932e+04   4.2692798e+04   4.2617400e+04   4.2542843e+04   4.2469221e+04   4.2396632e+04   4.2325174e+04   4.2254952e+04   4.2186079e+04   4.2118679e+04   4.2052887e+04   4.1988849e+04   4.1926721e+04   4.1866668e+04   4.1808866e+04   4.1753492e+04   4.1700731e+04   4.1650767e+04   4.1603784e+04   4.1559962e+04   4.1519477e+04   4.1482498e+04   4.1449183e+04   4.1419684e+04   4.1394141e+04   4.1372682e+04   4.1355424e+04   4.1342476e+04   4.1333935e+04   4.1329886e+04   4.1330410e+04   4.1335577e+04   4.1345451e+04   4.1360089e+04   4.1379544e+04   4.1403862e+04   4.1433087e+04   4.1467255e+04   4.1506400e+04   4.1550548e+04   4.1599722e+04   4.1653937e+04   4.1713199e+04   4.1777507e+04   4.1846849e+04   4.1921203e+04   4.2000534e+04   4.2084795e+04   4.2173925e+04   4.2267847e+04   4.2366470e+04   4.2469687e+04   4.2577375e+04   4.2689397e+04   4.2805596e+04   4.2925806e+04   4.3049840e+04   4.3177502e+04   4.3308581e+04   4.3442853e+04
4.7208304e+04   4.6908311e+04   4.6586963e+04   4.6245212e+04   4.5884491e+04   4.5506733e+04   4.5114380e+04   4.4710375e+04   4.4298135e+04   4.3881507e+04   4.3464715e+04   4.3052276e+04   4.2648910e+04   4.2259439e+04   4.1888666e+04   4.1541261e+04   4.1221635e+04   4.0933819e+04   4.0681355e+04   4.0467191e+04   4.0293600e+04   4.0162108e+04   4.0073454e+04   4.0027568e+04   4.0023576e+04   4.0059827e+04   4.0133944e+04   4.0242903e+04   4.0383115e+04   4.0550541e+04   4.0740799e+04   4.0949289e+04   4.1171318e+04   4.1402213e+04   4.1637435e+04   4.1872680e+04   4.2103964e+04   4.2327698e+04   4.2540734e+04   4.2740410e+04   4.2924561e+04   4.3091529e+04   4.3240145e+04   4.3369704e+04   4.3479934e+04   4.3570946e+04   4.3643189e+04   4.3697392e+04   4.3734515e+04   4.3755692e+04   4.3762181e+04   4.3755317e+04   4.3736469e+04   4.3707006e+04   4.3668262e+04   4.3621516e+04   4.3567967e+04   4.3508725e+04   4.3444800e+04   4.3377097e+04   4.3306418e+04   4.3233460e+04   4.3158824e+04   4.3083019e+04   4.3006473e+04   4.2929538e+04   4.2852503e+04   4.2775605e+04   4.2699034e+04   4.2622946e+04   4.2547472e+04   4.2472723e+04   4.2398800e+04   4.2325801e+04   4.2253823e+04   4.2182971e+04   4.2113357e+04   4.2045105e+04   4.1978352e+04   4.1913250e+04   4.1849961e+04   4.1788661e+04   4.1729536e+04   4.1672782e+04   4.1618596e+04   4.1567181e+04   4.1518740e+04   4.1473470e+04   4.1431563e+04   4.1393202e+04   4.1358560e+04   4.1327796e+04   4.1301055e+04   4.1278467e+04   4.1260149e+04   4.1246201e+04   4.1236709e+04   4.1231748e+04   4.1231380e+04   4.1235657e+04   4.1244621e+04   4.1258311e+04   4.1276755e+04   4.1299982e+04   4.1328015e+04   4.1360873e+04   4.1398577e+04   4.1441142e+04   4.1488584e+04   4.1540913e+04   4.1598137e+04   4.1660258e+04   4.1727273e+04   4.1799171e+04   4.1875932e+04   4.1957525e+04   4.2043909e+04   4.2135030e+04   4.2230818e+04   4.2331190e+04   4.2436048e+04   4.2545277e+04   4.2658747e+04   4.2776312e+04   4.2897810e+04   4.3023064e+04   4.3151882e+04   4.3284060e+04   4.3419380e+04
4.7121303e+04   4.6811036e+04   4.6478661e+04   4.6125164e+04   4.5752029e+04   4.5361257e+04   4.4955380e+04   4.4537443e+04   4.4110986e+04   4.3679994e+04   4.3248841e+04   4.2822204e+04   4.2404973e+04   4.2002141e+04   4.1618683e+04   4.1259436e+04   4.0928967e+04   4.0631452e+04   4.0370561e+04   4.0149348e+04   3.9970166e+04   3.9834599e+04   3.9743414e+04   3.9696540e+04   3.9693073e+04   3.9731307e+04   3.9808784e+04   3.9922373e+04   4.0068362e+04   4.0242570e+04   4.0440463e+04   4.0657281e+04   4.0888167e+04   4.1128284e+04   4.1372935e+04   4.1617668e+04   4.1858359e+04   4.2091294e+04   4.2313218e+04   4.2521375e+04   4.2713528e+04   4.2887962e+04   4.3043469e+04   4.3179324e+04   4.3295245e+04   4.3391353e+04   4.3468114e+04   4.3526287e+04   4.3566868e+04   4.3591033e+04   4.3600087e+04   4.3595415e+04   4.3578435e+04   4.3550566e+04   4.3513188e+04   4.3467624e+04   4.3415114e+04   4.3356802e+04   4.3293730e+04   4.3226828e+04   4.3156918e+04   4.3084713e+04   4.3010824e+04   4.2935766e+04   4.2859969e+04   4.2783785e+04   4.2707499e+04   4.2631343e+04   4.2555501e+04   4.2480122e+04   4.2405332e+04   4.2331237e+04   4.2257937e+04   4.2185529e+04   4.2114116e+04   4.2043807e+04   4.1974726e+04   4.1907011e+04   4.1840818e+04   4.1776317e+04   4.1713696e+04   4.1653156e+04   4.1594908e+04   4.1539175e+04   4.1486182e+04   4.1436157e+04   4.1389322e+04   4.1345896e+04   4.1306085e+04   4.1270082e+04   4.1238066e+04   4.1210193e+04   4.1186605e+04   4.1167419e+04   4.1152734e+04   4.1142630e+04   4.1137166e+04   4.1136388e+04   4.1140325e+04   4.1148995e+04   4.1162406e+04   4.1180560e+04   4.1203454e+04   4.1231080e+04   4.1263433e+04   4.1300506e+04   4.1342292e+04   4.1388788e+04   4.1439990e+04   4.1495898e+04   4.1556509e+04   4.1621820e+04   4.1691825e+04   4.1766513e+04   4.1845868e+04   4.1929864e+04   4.2018469e+04   4.2111634e+04   4.2209303e+04   4.2311401e+04   4.2417842e+04   4.2528522e+04   4.2643321e+04   4.2762105e+04   4.2884720e+04   4.3011000e+04   4.3140761e+04   4.3273808e+04   4.3409928e+04
4.7036479e+04   4.6716157e+04   4.6372989e+04   4.6007996e+04   4.5622710e+04   4.5219203e+04   4.4800088e+04   4.4368516e+04   4.3928144e+04   4.3483091e+04   4.3037879e+04   4.2597341e+04   4.2166531e+04   4.1750611e+04   4.1354722e+04   4.0983864e+04   4.0642758e+04   4.0335722e+04   4.0066547e+04   3.9838393e+04   3.9653693e+04   3.9514085e+04   3.9420364e+04   3.9372458e+04   3.9369436e+04   3.9409536e+04   3.9490221e+04   3.9608259e+04   3.9759815e+04   3.9940572e+04   4.0145847e+04   4.0370724e+04   4.0610185e+04   4.0859235e+04   4.1113025e+04   4.1366953e+04   4.1616764e+04   4.1858619e+04   4.2089159e+04   4.2305538e+04   4.2505447e+04   4.2687117e+04   4.2849301e+04   4.2991254e+04   4.3112688e+04   4.3213730e+04   4.3294865e+04   4.3356881e+04   4.3400810e+04   4.3427872e+04   4.3439416e+04   4.3436877e+04   4.3421723e+04   4.3395419e+04   4.3359395e+04   4.3315013e+04   4.3263554e+04   4.3206198e+04   4.3144014e+04   4.3077957e+04   4.3008867e+04   4.2937470e+04   4.2864386e+04   4.2790133e+04   4.2715139e+04   4.2639755e+04   4.2564258e+04   4.2488871e+04   4.2413770e+04   4.2339095e+04   4.2264965e+04   4.2191480e+04   4.2118738e+04   4.2046836e+04   4.1975881e+04   4.1905992e+04   4.1837307e+04   4.1769983e+04   4.1704198e+04   4.1640148e+04   4.1578053e+04   4.1518144e+04   4.1460669e+04   4.1405883e+04   4.1354047e+04   4.1305417e+04   4.1260248e+04   4.1218780e+04   4.1181241e+04   4.1147836e+04   4.1118749e+04   4.1094140e+04   4.1074140e+04   4.1058853e+04   4.1048357e+04   4.1042704e+04   4.1041922e+04   4.1046018e+04   4.1054982e+04   4.1068789e+04   4.1087402e+04   4.1110779e+04   4.1138873e+04   4.1171637e+04   4.1209026e+04   4.1250997e+04   4.1297514e+04   4.1348547e+04   4.1404072e+04   4.1464070e+04   4.1528527e+04   4.1597433e+04   4.1670778e+04   4.1748553e+04   4.1830744e+04   4.1917335e+04   4.2008299e+04   4.2103602e+04   4.2203198e+04   4.2307027e+04   4.2415017e+04   4.2527077e+04   4.2643102e+04   4.2762969e+04   4.2886541e+04   4.3013661e+04   4.3144158e+04   4.3277846e+04   4.3414523e+04
4.6954085e+04   4.6623962e+04   4.6270276e+04   4.5894079e+04   4.5496953e+04   4.5081035e+04   4.4649022e+04   4.4204162e+04   4.3750229e+04   4.3291473e+04   4.2832555e+04   4.2378465e+04   4.1934413e+04   4.1505725e+04   4.1097704e+04   4.0715508e+04   4.0364007e+04   4.0047655e+04   3.9770365e+04   3.9535396e+04   3.9345259e+04   3.9201645e+04   3.9105377e+04   3.9056383e+04   3.9053704e+04   3.9095525e+04   3.9179233e+04   3.9301496e+04   3.9458362e+04   3.9645381e+04   3.9857726e+04   4.0090331e+04   4.0338021e+04   4.0595649e+04   4.0858214e+04   4.1120974e+04   4.1379542e+04   4.1629962e+04   4.1868772e+04   4.2093038e+04   4.2300383e+04   4.2488983e+04   4.2657556e+04   4.2805336e+04   4.2932030e+04   4.3037771e+04   4.3123065e+04   4.3188726e+04   4.3235824e+04   4.3265619e+04   4.3279510e+04   4.3278977e+04   4.3265538e+04   4.3240707e+04   4.3205957e+04   4.3162695e+04   4.3112241e+04   4.3055806e+04   4.2994489e+04   4.2929266e+04   4.2860995e+04   4.2790411e+04   4.2718141e+04   4.2644703e+04   4.2570523e+04   4.2495941e+04   4.2421227e+04   4.2346591e+04   4.2272198e+04   4.2198177e+04   4.2124635e+04   4.2051666e+04   4.1979364e+04   4.1907828e+04   4.1837169e+04   4.1767520e+04   4.1699035e+04   4.1631893e+04   4.1566303e+04   4.1502494e+04   4.1440723e+04   4.1381263e+04   4.1324403e+04   4.1270443e+04   4.1219685e+04   4.1172427e+04   4.1128958e+04   4.1089551e+04   4.1054456e+04   4.1023897e+04   4.0998067e+04   4.0977125e+04   4.0961194e+04   4.0950360e+04   4.0944677e+04   4.0944162e+04   4.0948803e+04   4.0958562e+04   4.0973378e+04   4.0993173e+04   4.1017856e+04   4.1047330e+04   4.1081494e+04   4.1120250e+04   4.1163504e+04   4.1211172e+04   4.1263179e+04   4.1319461e+04   4.1379968e+04   4.1444661e+04   4.1513510e+04   4.1586495e+04   4.1663604e+04   4.1744828e+04   4.1830158e+04   4.1919586e+04   4.2013098e+04   4.2110672e+04   4.2212279e+04   4.2317875e+04   4.2427405e+04   4.2540797e+04   4.2657962e+04   4.2778796e+04   4.2903176e+04   4.3030962e+04   4.3161996e+04   4.3296105e+04   4.3433100e+04
4.6874352e+04   4.6534718e+04   4.6170826e+04   4.5783759e+04   4.5375148e+04   4.4947191e+04   4.4502666e+04   4.4044917e+04   4.3577829e+04   4.3105777e+04   4.2633562e+04   4.2166317e+04   4.1709409e+04   4.1268319e+04   4.0848508e+04   4.0455284e+04   4.0093663e+04   3.9768231e+04   3.9483015e+04   3.9241372e+04   3.9045888e+04   3.8898307e+04   3.8799474e+04   3.8749321e+04   3.8746861e+04   3.8790229e+04   3.8876738e+04   3.9002960e+04   3.9164831e+04   3.9357771e+04   3.9576816e+04   3.9816752e+04   4.0072257e+04   4.0338034e+04   4.0608938e+04   4.0880090e+04   4.1146976e+04   4.1405527e+04   4.1652179e+04   4.1883918e+04   4.2098296e+04   4.2293439e+04   4.2468031e+04   4.2621285e+04   4.2752903e+04   4.2863027e+04   4.2952180e+04   4.3021206e+04   4.3071211e+04   4.3103498e+04   4.3119509e+04   4.3120774e+04   4.3108861e+04   4.3085329e+04   4.3051701e+04   4.3009423e+04   4.2959853e+04   4.2904237e+04   4.2843698e+04   4.2779236e+04   4.2711721e+04   4.2641900e+04   4.2570399e+04   4.2497736e+04   4.2424328e+04   4.2350506e+04   4.2276525e+04   4.2202579e+04   4.2128818e+04   4.2055356e+04   4.1982286e+04   4.1909695e+04   4.1837670e+04   4.1766312e+04   4.1695739e+04   4.1626097e+04   4.1557563e+04   4.1490344e+04   4.1424683e+04   4.1360851e+04   4.1299151e+04   4.1239907e+04   4.1183461e+04   4.1130166e+04   4.1080375e+04   4.1034437e+04   4.0992686e+04   4.0955432e+04   4.0922957e+04   4.0895506e+04   4.0873284e+04   4.0856450e+04   4.0845117e+04   4.0839353e+04   4.0839177e+04   4.0844568e+04   4.0855465e+04   4.0871775e+04   4.0893374e+04   4.0920121e+04   4.0951859e+04   4.0988422e+04   4.1029645e+04   4.1075367e+04   4.1125436e+04   4.1179714e+04   4.1238080e+04   4.1300431e+04   4.1366682e+04   4.1436769e+04   4.1510644e+04   4.1588278e+04   4.1669650e+04   4.1754754e+04   4.1843588e+04   4.1936152e+04   4.2032447e+04   4.2132470e+04   4.2236208e+04   4.2343641e+04   4.2454732e+04   4.2569432e+04   4.2687674e+04   4.2809373e+04   4.2934428e+04   4.3062716e+04   4.3194098e+04   4.3328418e+04   4.3465500e+04
4.6797486e+04   4.6448664e+04   4.6074914e+04   4.5677352e+04   4.5257651e+04   4.4818072e+04   4.4361468e+04   4.3891276e+04   4.3411488e+04   4.2926599e+04   4.2441541e+04   4.1961589e+04   4.1492258e+04   4.1039176e+04   4.0607958e+04   4.0204055e+04   3.9832622e+04   3.9498371e+04   3.9205439e+04   3.8957277e+04   3.8756544e+04   3.8605031e+04   3.8503611e+04   3.8452212e+04   3.8449825e+04   3.8494537e+04   3.8583587e+04   3.8713457e+04   3.8879976e+04   3.9078441e+04   3.9303754e+04   3.9550560e+04   3.9813396e+04   4.0086820e+04   4.0365550e+04   4.0644574e+04   4.0919258e+04   4.1185421e+04   4.1439405e+04   4.1678114e+04   4.1899035e+04   4.2100246e+04   4.2280396e+04   4.2438680e+04   4.2574796e+04   4.2688893e+04   4.2781514e+04   4.2853532e+04   4.2906088e+04   4.2940528e+04   4.2958340e+04   4.2961103e+04   4.2950434e+04   4.2927941e+04   4.2895190e+04   4.2853675e+04   4.2804787e+04   4.2749806e+04   4.2689883e+04   4.2626037e+04   4.2559150e+04   4.2489977e+04   4.2419143e+04   4.2347161e+04   4.2274437e+04   4.2201286e+04   4.2127945e+04   4.2054590e+04   4.1981348e+04   4.1908315e+04   4.1835569e+04   4.1763182e+04   4.1691238e+04   4.1619835e+04   4.1549101e+04   4.1479199e+04   4.1410329e+04   4.1342734e+04   4.1276696e+04   4.1212540e+04   4.1150621e+04   4.1091325e+04   4.1035058e+04   4.0982237e+04   4.0933279e+04   4.0888594e+04   4.0848568e+04   4.0813560e+04   4.0783889e+04   4.0759828e+04   4.0741594e+04   4.0729350e+04   4.0723198e+04   4.0723179e+04   4.0729279e+04   4.0741427e+04   4.0759504e+04   4.0783350e+04   4.0812770e+04   4.0847543e+04   4.0887433e+04   4.0932194e+04   4.0981583e+04   4.1035362e+04   4.1093310e+04   4.1155225e+04   4.1220929e+04   4.1290271e+04   4.1363127e+04   4.1439402e+04   4.1519027e+04   4.1601956e+04   4.1688166e+04   4.1777649e+04   4.1870411e+04   4.1966465e+04   4.2065830e+04   4.2168522e+04   4.2274551e+04   4.2383921e+04   4.2496623e+04   4.2612632e+04   4.2731908e+04   4.2854391e+04   4.2980003e+04   4.3108646e+04   4.3240200e+04   4.3374528e+04   4.3511475e+04
4.6723664e+04   4.6366009e+04   4.5982786e+04   4.5575137e+04   4.5144782e+04   4.4694039e+04   4.4225833e+04   4.3743690e+04   4.3251703e+04   4.2754482e+04   4.2257084e+04   4.1764918e+04   4.1283639e+04   4.0819020e+04   4.0376815e+04   3.9962617e+04   3.9581710e+04   3.9238925e+04   3.8938508e+04   3.8683996e+04   3.8478116e+04   3.8322707e+04   3.8218665e+04   3.8165919e+04   3.8163436e+04   3.8209255e+04   3.8300550e+04   3.8433715e+04   3.8604475e+04   3.8808011e+04   3.9039097e+04   3.9292246e+04   3.9561855e+04   3.9842350e+04   4.0128313e+04   4.0414609e+04   4.0696484e+04   4.0969654e+04   4.1230368e+04   4.1475453e+04   4.1702334e+04   4.1909041e+04   4.2094191e+04   4.2256962e+04   4.2397048e+04   4.2514607e+04   4.2610201e+04   4.2684732e+04   4.2739378e+04   4.2775527e+04   4.2794716e+04   4.2798571e+04   4.2788760e+04   4.2766941e+04   4.2734727e+04   4.2693653e+04   4.2645153e+04   4.2590537e+04   4.2530983e+04   4.2467529e+04   4.2401071e+04   4.2332366e+04   4.2262039e+04   4.2190592e+04   4.2118417e+04   4.2045809e+04   4.1972982e+04   4.1900087e+04   4.1827226e+04   4.1754472e+04   4.1681880e+04   4.1609509e+04   4.1537432e+04   4.1465747e+04   4.1394591e+04   4.1324145e+04   4.1254636e+04   4.1186348e+04   4.1119613e+04   4.1054812e+04   4.0992367e+04   4.0932736e+04   4.0876400e+04   4.0823853e+04   4.0775587e+04   4.0732084e+04   4.0693795e+04   4.0661137e+04   4.0634473e+04   4.0614108e+04   4.0600278e+04   4.0593150e+04   4.0592812e+04   4.0599279e+04   4.0612491e+04   4.0632325e+04   4.0658591e+04   4.0691051e+04   4.0729425e+04   4.0773400e+04   4.0822645e+04   4.0876820e+04   4.0935588e+04   4.0998622e+04   4.1065619e+04   4.1136300e+04   4.1210420e+04   4.1287772e+04   4.1368185e+04   4.1451527e+04   4.1537703e+04   4.1626650e+04   4.1718339e+04   4.1812762e+04   4.1909934e+04   4.2009884e+04   4.2112649e+04   4.2218270e+04   4.2326785e+04   4.2438227e+04   4.2552616e+04   4.2669961e+04   4.2790249e+04   4.2913453e+04   4.3039521e+04   4.3168383e+04   4.3299945e+04   4.3434093e+04   4.3570692e+04
4.6653034e+04   4.6286928e+04   4.5894645e+04   4.5477355e+04   4.5036818e+04   4.4575407e+04   4.4096117e+04   4.3602557e+04   4.3098915e+04   4.2589911e+04   4.2080719e+04   4.1576875e+04   4.1084167e+04   4.0608501e+04   4.0155768e+04   3.9731689e+04   3.9341674e+04   3.8990666e+04   3.8683010e+04   3.8422326e+04   3.8211408e+04   3.8052136e+04   3.7945429e+04   3.7891217e+04   3.7888444e+04   3.7935105e+04   3.8028309e+04   3.8164369e+04   3.8338912e+04   3.8547007e+04   3.8783309e+04   3.9042204e+04   3.9317960e+04   3.9604870e+04   3.9897394e+04   4.0190274e+04   4.0478646e+04   4.0758127e+04   4.1024876e+04   4.1275647e+04   4.1507805e+04   4.1719334e+04   4.1908823e+04   4.2075431e+04   4.2218851e+04   4.2339248e+04   4.2437206e+04   4.2513657e+04   4.2569816e+04   4.2607115e+04   4.2627138e+04   4.2631564e+04   4.2622110e+04   4.2600487e+04   4.2568357e+04   4.2527301e+04   4.2478792e+04   4.2424175e+04   4.2364655e+04   4.2301289e+04   4.2234986e+04   4.2166505e+04   4.2096466e+04   4.2025360e+04   4.1953560e+04   4.1881336e+04   4.1808874e+04   4.1736294e+04   4.1663668e+04   4.1591037e+04   4.1518433e+04   4.1445894e+04   4.1373481e+04   4.1301289e+04   4.1229462e+04   4.1158200e+04   4.1087764e+04   4.1018481e+04   4.0950739e+04   4.0884986e+04   4.0821721e+04   4.0761483e+04   4.0704842e+04   4.0652381e+04   4.0604681e+04   4.0562307e+04   4.0525789e+04   4.0495608e+04   4.0472182e+04   4.0455854e+04   4.0446885e+04   4.0445443e+04   4.0451605e+04   4.0465353e+04   4.0486581e+04   4.0515097e+04   4.0550636e+04   4.0592867e+04   4.0641411e+04   4.0695849e+04   4.0755740e+04   4.0820632e+04   4.0890082e+04   4.0963658e+04   4.1040959e+04   4.1121620e+04   4.1205318e+04   4.1291777e+04   4.1380773e+04   4.1472131e+04   4.1565725e+04   4.1661475e+04   4.1759339e+04   4.1859315e+04   4.1961426e+04   4.2065719e+04   4.2172253e+04   4.2281098e+04   4.2392324e+04   4.2505999e+04   4.2622177e+04   4.2740904e+04   4.2862203e+04   4.2986081e+04   4.3112520e+04   4.3241480e+04   4.3372899e+04   4.3506688e+04   4.3642738e+04
4.6585707e+04   4.6211558e+04   4.5810657e+04   4.5384200e+04   4.4933986e+04   4.4462438e+04   4.3972619e+04   4.3468214e+04   4.2953502e+04   4.2433303e+04   4.1912903e+04   4.1397957e+04   4.0894375e+04   4.0408191e+04   3.9945419e+04   3.9511906e+04   3.9113173e+04   3.8754272e+04   3.8439639e+04   3.8172973e+04   3.7957127e+04   3.7794022e+04   3.7684598e+04   3.7628783e+04   3.7625501e+04   3.7672706e+04   3.7767446e+04   3.7905957e+04   3.8083773e+04   3.8295860e+04   3.8536758e+04   3.8800734e+04   3.9081933e+04   3.9374528e+04   3.9672856e+04   3.9971549e+04   4.0265635e+04   4.0550636e+04   4.0822628e+04   4.1078294e+04   4.1314942e+04   4.1530513e+04   4.1723567e+04   4.1893250e+04   4.2039250e+04   4.2161745e+04   4.2261338e+04   4.2338993e+04   4.2395962e+04   4.2433725e+04   4.2453914e+04   4.2458262e+04   4.2448542e+04   4.2426517e+04   4.2393902e+04   4.2352326e+04   4.2303305e+04   4.2248221e+04   4.2188308e+04   4.2124644e+04   4.2058149e+04   4.1989586e+04   4.1919567e+04   4.1848569e+04   4.1776940e+04   4.1704924e+04   4.1632672e+04   4.1560266e+04   4.1487740e+04   4.1415102e+04   4.1342349e+04   4.1269495e+04   4.1196583e+04   4.1123702e+04   4.1051003e+04   4.0978706e+04   4.0907105e+04   4.0836576e+04   4.0767569e+04   4.0700606e+04   4.0636273e+04   4.0575203e+04   4.0518066e+04   4.0465548e+04   4.0418330e+04   4.0377074e+04   4.0342400e+04   4.0314864e+04   4.0294949e+04   4.0283043e+04   4.0279433e+04   4.0284295e+04   4.0297691e+04   4.0319567e+04   4.0349763e+04   4.0388015e+04   4.0433965e+04   4.0487183e+04   4.0547173e+04   4.0613395e+04   4.0685282e+04   4.0762259e+04   4.0843753e+04   4.0929218e+04   4.1018140e+04   4.1110052e+04   4.1204543e+04   4.1301260e+04   4.1399916e+04   4.1500287e+04   4.1602212e+04   4.1705588e+04   4.1810365e+04   4.1916542e+04   4.2024153e+04   4.2133264e+04   4.2243963e+04   4.2356352e+04   4.2470538e+04   4.2586626e+04   4.2704714e+04   4.2824886e+04   4.2947209e+04   4.3071729e+04   4.3198466e+04   4.3327417e+04   4.3458553e+04   4.3591816e+04   4.3727127e+04
4.6521757e+04   4.6139995e+04   4.5730942e+04   4.5295820e+04   4.4836462e+04   4.4355341e+04   4.3855580e+04   4.3340936e+04   4.2815773e+04   4.2285004e+04   4.1754018e+04   4.1228580e+04   4.0714714e+04   4.0218572e+04   3.9746283e+04   3.9303806e+04   3.8896771e+04   3.8530324e+04   3.8208990e+04   3.7936538e+04   3.7715875e+04   3.7548962e+04   3.7436756e+04   3.7379185e+04   3.7375151e+04   3.7422571e+04   3.7518435e+04   3.7658908e+04   3.7839437e+04   3.8054890e+04   3.8299702e+04   3.8568027e+04   3.8853895e+04   3.9151364e+04   3.9454660e+04   3.9758305e+04   4.0057231e+04   4.0346867e+04   4.0623212e+04   4.0882879e+04   4.1123123e+04   4.1341847e+04   4.1537580e+04   4.1709456e+04   4.1857164e+04   4.1980890e+04   4.2081262e+04   4.2159275e+04   4.2216223e+04   4.2253632e+04   4.2273188e+04   4.2276681e+04   4.2265940e+04   4.2242790e+04   4.2208999e+04   4.2166250e+04   4.2116106e+04   4.2059990e+04   4.1999167e+04   4.1934740e+04   4.1867640e+04   4.1798633e+04   4.1728326e+04   4.1657174e+04   4.1585503e+04   4.1513519e+04   4.1441336e+04   4.1368991e+04   4.1296474e+04   4.1223748e+04   4.1150772e+04   4.1077527e+04   4.1004032e+04   4.0930368e+04   4.0856687e+04   4.0783227e+04   4.0710319e+04   4.0638388e+04   4.0567952e+04   4.0499616e+04   4.0434059e+04   4.0372019e+04   4.0314279e+04   4.0261637e+04   4.0214892e+04   4.0174813e+04   4.0142120e+04   4.0117459e+04   4.0101383e+04   4.0094334e+04   4.0096631e+04   4.0108457e+04   4.0129861e+04   4.0160751e+04   4.0200904e+04   4.0249976e+04   4.0307510e+04   4.0372959e+04   4.0445698e+04   4.0525054e+04   4.0610316e+04   4.0700766e+04   4.0795694e+04   4.0894417e+04   4.0996297e+04   4.1100753e+04   4.1207272e+04   4.1315417e+04   4.1424827e+04   4.1535225e+04   4.1646409e+04   4.1758251e+04   4.1870692e+04   4.1983731e+04   4.2097416e+04   4.2211835e+04   4.2327108e+04   4.2443371e+04   4.2560774e+04   4.2679467e+04   4.2799594e+04   4.2921286e+04   4.3044656e+04   4.3169795e+04   4.3296767e+04   4.3425611e+04   4.3556333e+04   4.3688915e+04   4.3823306e+04
4.6461218e+04   4.6072291e+04   4.5655573e+04   4.5212309e+04   4.4744365e+04   4.4254261e+04   4.3745173e+04   4.3220927e+04   4.2685962e+04   4.2145279e+04   4.1604361e+04   4.1069072e+04   4.0545543e+04   4.0040030e+04   3.9558770e+04   3.9107825e+04   3.8692920e+04   3.8319293e+04   3.7991544e+04   3.7713508e+04   3.7488141e+04   3.7317439e+04   3.7202375e+04   3.7142875e+04   3.7137823e+04   3.7185097e+04   3.7281637e+04   3.7423539e+04   3.7606170e+04   3.7824309e+04   3.8072291e+04   3.8344166e+04   3.8633857e+04   3.8935314e+04   3.9242659e+04   3.9550312e+04   3.9853112e+04   4.0146404e+04   4.0426111e+04   4.0688783e+04   4.0931624e+04   4.1152498e+04   4.1349909e+04   4.1522980e+04   4.1671398e+04   4.1795366e+04   4.1895532e+04   4.1972927e+04   4.2028889e+04   4.2064993e+04   4.2082984e+04   4.2084712e+04   4.2072070e+04   4.2046944e+04   4.2011168e+04   4.1966480e+04   4.1914498e+04   4.1856690e+04   4.1794358e+04   4.1728630e+04   4.1660456e+04   4.1590603e+04   4.1519670e+04   4.1448096e+04   4.1376174e+04   4.1304072e+04   4.1231857e+04   4.1159518e+04   4.1086989e+04   4.1014182e+04   4.0941009e+04   4.0867409e+04   4.0793371e+04   4.0718959e+04   4.0644322e+04   4.0569715e+04   4.0495502e+04   4.0422160e+04   4.0350277e+04   4.0280545e+04   4.0213746e+04   4.0150733e+04   4.0092407e+04   4.0039696e+04   3.9993523e+04   3.9954779e+04   3.9924296e+04   3.9902819e+04   3.9890981e+04   3.9889284e+04   3.9898083e+04   3.9917575e+04   3.9947791e+04   3.9988600e+04   4.0039714e+04   4.0100698e+04   4.0170987e+04   4.0249905e+04   4.0336689e+04   4.0430511e+04   4.0530507e+04   4.0635801e+04   4.0745526e+04   4.0858853e+04   4.0975004e+04   4.1093272e+04   4.1213031e+04   4.1333748e+04   4.1454985e+04   4.1576401e+04   4.1697753e+04   4.1818885e+04   4.1939724e+04   4.2060273e+04   4.2180594e+04   4.2300800e+04   4.2421045e+04   4.2541508e+04   4.2662382e+04   4.2783869e+04   4.2906164e+04   4.3029451e+04   4.3153893e+04   4.3279633e+04   4.3406783e+04   4.3535426e+04   4.3665613e+04   4.3797363e+04   4.3930663e+04
4.6404082e+04   4.6008452e+04   4.5584571e+04   4.5133706e+04   4.4657755e+04   4.4159278e+04   4.3641502e+04   4.3108314e+04   4.2564223e+04   4.2014308e+04   4.1464137e+04   4.0919666e+04   4.0387118e+04   3.9872847e+04   3.9383185e+04   3.8924286e+04   3.8501962e+04   3.8121531e+04   3.7787662e+04   3.7504247e+04   3.7274289e+04   3.7099811e+04   3.6981800e+04   3.6920181e+04   3.6913818e+04   3.6960557e+04   3.7057288e+04   3.7200045e+04   3.7384121e+04   3.7604212e+04   3.7854561e+04   3.8129123e+04   3.8421721e+04   3.8726206e+04   3.9036600e+04   3.9347234e+04   3.9652856e+04   3.9948732e+04   4.0230714e+04   4.0495294e+04   4.0739627e+04   4.0961540e+04   4.1159516e+04   4.1332665e+04   4.1480679e+04   4.1603773e+04   4.1702624e+04   4.1778298e+04   4.1832180e+04   4.1865901e+04   4.1881268e+04   4.1880195e+04   4.1864646e+04   4.1836579e+04   4.1797894e+04   4.1750398e+04   4.1695768e+04   4.1635524e+04   4.1571012e+04   4.1503391e+04   4.1433631e+04   4.1362505e+04   4.1290606e+04   4.1218350e+04   4.1146000e+04   4.1073681e+04   4.1001405e+04   4.0929104e+04   4.0856651e+04   4.0783894e+04   4.0710690e+04   4.0636926e+04   4.0562552e+04   4.0487606e+04   4.0412228e+04   4.0336682e+04   4.0261363e+04   4.0186798e+04   4.0113648e+04   4.0042694e+04   3.9974824e+04   3.9911013e+04   3.9852292e+04   3.9799725e+04   3.9754370e+04   3.9717252e+04   3.9689324e+04   3.9671439e+04   3.9664320e+04   3.9668536e+04   3.9684484e+04   3.9712374e+04   3.9752223e+04   3.9803860e+04   3.9866924e+04   3.9940886e+04   4.0025062e+04   4.0118640e+04   4.0220703e+04   4.0330261e+04   4.0446279e+04   4.0567710e+04   4.0693521e+04   4.0822717e+04   4.0954372e+04   4.1087640e+04   4.1221773e+04   4.1356134e+04   4.1490199e+04   4.1623562e+04   4.1755928e+04   4.1887115e+04   4.2017036e+04   4.2145696e+04   4.2273174e+04   4.2399611e+04   4.2525198e+04   4.2650158e+04   4.2774737e+04   4.2899190e+04   4.3023769e+04   4.3148714e+04   4.3274248e+04   4.3400566e+04   4.3527835e+04   4.3656186e+04   4.3785719e+04   4.3916493e+04   4.4048537e+04
4.6350296e+04   4.5948433e+04   4.5517903e+04   4.5059992e+04   4.4576626e+04   4.4070403e+04   4.3544596e+04   4.3003146e+04   4.2450625e+04   4.1892181e+04   4.1333459e+04   4.0780494e+04   4.0239594e+04   3.9717196e+04   3.9219718e+04   3.8753395e+04   3.8324116e+04   3.7937266e+04   3.7597578e+04   3.7308994e+04   3.7074553e+04   3.6896305e+04   3.6775247e+04   3.6711300e+04   3.6703312e+04   3.6749097e+04   3.6845499e+04   3.6988496e+04   3.7173314e+04   3.7394572e+04   3.7646430e+04   3.7922754e+04   3.8217278e+04   3.8523759e+04   3.8836132e+04   3.9148638e+04   3.9455945e+04   3.9753245e+04   4.0036325e+04   4.0301620e+04   4.0546240e+04   4.0767979e+04   4.0965299e+04   4.1137302e+04   4.1283683e+04   4.1404676e+04   4.1500985e+04   4.1573717e+04   4.1624309e+04   4.1654450e+04   4.1666015e+04   4.1660993e+04   4.1641424e+04   4.1609344e+04   4.1566733e+04   4.1515471e+04   4.1457305e+04   4.1393817e+04   4.1326402e+04   4.1256260e+04   4.1184382e+04   4.1111556e+04   4.1038366e+04   4.0965209e+04   4.0892313e+04   4.0819756e+04   4.0747491e+04   4.0675384e+04   4.0603236e+04   4.0530825e+04   4.0457937e+04   4.0384399e+04   4.0310108e+04   4.0235067e+04   4.0159398e+04   4.0083365e+04   4.0007388e+04   3.9932041e+04   3.9858053e+04   3.9786295e+04   3.9717764e+04   3.9653560e+04   3.9594849e+04   3.9542839e+04   3.9498732e+04   3.9463693e+04   3.9438806e+04   3.9425041e+04   3.9423218e+04   3.9433979e+04   3.9457767e+04   3.9494809e+04   3.9545113e+04   3.9608460e+04   3.9684419e+04   3.9772360e+04   3.9871474e+04   3.9980805e+04   4.0099272e+04   4.0225713e+04   4.0358913e+04   4.0497640e+04   4.0640682e+04   4.0786874e+04   4.0935125e+04   4.1084443e+04   4.1233950e+04   4.1382897e+04   4.1530669e+04   4.1676787e+04   4.1820908e+04   4.1962816e+04   4.2102412e+04   4.2239702e+04   4.2374785e+04   4.2507831e+04   4.2639072e+04   4.2768780e+04   4.2897256e+04   4.3024812e+04   4.3151762e+04   4.3278409e+04   4.3405036e+04   4.3531898e+04   4.3659218e+04   4.3787183e+04   4.3915940e+04   4.4045598e+04   4.4176225e+04
4.6299762e+04   4.5892142e+04   4.5455482e+04   4.4991086e+04   4.4500907e+04   4.3987576e+04   4.3454407e+04   4.2905388e+04   4.2345147e+04   4.1778893e+04   4.1212336e+04   4.0651582e+04   4.0103010e+04   3.9573133e+04   3.9068439e+04   3.8595234e+04   3.8159472e+04   3.7766598e+04   3.7421396e+04   3.7127850e+04   3.6889032e+04   3.6707011e+04   3.6582792e+04   3.6516293e+04   3.6506343e+04   3.6550727e+04   3.6646250e+04   3.6788835e+04   3.6973650e+04   3.7195242e+04   3.7447699e+04   3.7724805e+04   3.8020211e+04   3.8327593e+04   3.8640801e+04   3.8953998e+04   3.9261777e+04   3.9559262e+04   3.9842177e+04   4.0106907e+04   4.0350520e+04   4.0570779e+04   4.0766128e+04   4.0935662e+04   4.1079084e+04   4.1196646e+04   4.1289086e+04   4.1357555e+04   4.1403544e+04   4.1428811e+04   4.1435302e+04   4.1425089e+04   4.1400299e+04   4.1363056e+04   4.1315427e+04   4.1259380e+04   4.1196738e+04   4.1129157e+04   4.1058092e+04   4.0984789e+04   4.0910272e+04   4.0835342e+04   4.0760583e+04   4.0686373e+04   4.0612903e+04   4.0540198e+04   4.0468150e+04   4.0396548e+04   4.0325114e+04   4.0253543e+04   4.0181538e+04   4.0108851e+04   4.0035319e+04   3.9960891e+04   3.9885661e+04   3.9809885e+04   3.9733994e+04   3.9658602e+04   3.9584501e+04   3.9512649e+04   3.9444151e+04   3.9380229e+04   3.9322191e+04   3.9271388e+04   3.9229172e+04   3.9196856e+04   3.9175660e+04   3.9166676e+04   3.9170828e+04   3.9188836e+04   3.9221196e+04   3.9268156e+04   3.9329710e+04   3.9405600e+04   3.9495318e+04   3.9598134e+04   3.9713110e+04   3.9839137e+04   3.9974968e+04   4.0119259e+04   4.0270607e+04   4.0427589e+04   4.0588806e+04   4.0752912e+04   4.0918646e+04   4.1084862e+04   4.1250547e+04   4.1414834e+04   4.1577011e+04   4.1736527e+04   4.1892985e+04   4.2046134e+04   4.2195864e+04   4.2342185e+04   4.2485213e+04   4.2625152e+04   4.2762276e+04   4.2896910e+04   4.3029411e+04   4.3160156e+04   4.3289523e+04   4.3417879e+04   4.3545573e+04   4.3672923e+04   4.3800212e+04   4.3927685e+04   4.4055541e+04   4.4183939e+04   4.4312991e+04
4.6252333e+04   4.5839430e+04   4.5397161e+04   4.4926845e+04   4.4430459e+04   4.3910663e+04   4.3370806e+04   4.2814919e+04   4.2247677e+04   4.1674340e+04   4.1100674e+04   4.0532846e+04   3.9977295e+04   3.9440595e+04   3.8929294e+04   3.8449756e+04   3.8007990e+04   3.7609490e+04   3.7259080e+04   3.6960779e+04   3.6717685e+04   3.6531879e+04   3.6404375e+04   3.6335081e+04   3.6322812e+04   3.6365324e+04   3.6459385e+04   3.6600873e+04   3.6784900e+04   3.7005953e+04   3.7258050e+04   3.7534905e+04   3.7830097e+04   3.8137224e+04   3.8450063e+04   3.8762705e+04   3.9069675e+04   3.9366033e+04   3.9647449e+04   3.9910259e+04   4.0151494e+04   4.0368889e+04   4.0560872e+04   4.0726536e+04   4.0865592e+04   4.0978316e+04   4.1065482e+04   4.1128289e+04   4.1168290e+04   4.1187316e+04   4.1187395e+04   4.1170689e+04   4.1139421e+04   4.1095814e+04   4.1042037e+04   4.0980152e+04   4.0912078e+04   4.0839548e+04   4.0764093e+04   4.0687014e+04   4.0609375e+04   4.0531999e+04   4.0455472e+04   4.0380154e+04   4.0306200e+04   4.0233581e+04   4.0162119e+04   4.0091520e+04   4.0021418e+04   3.9951410e+04   3.9881107e+04   3.9810171e+04   3.9738359e+04   3.9665558e+04   3.9591815e+04   3.9517363e+04   3.9442635e+04   3.9368272e+04   3.9295120e+04   3.9224214e+04   3.9156761e+04   3.9094105e+04   3.9037687e+04   3.8989007e+04   3.8949567e+04   3.8920827e+04   3.8904149e+04   3.8900751e+04   3.8911664e+04   3.8937694e+04   3.8979388e+04   3.9037021e+04   3.9110578e+04   3.9199759e+04   3.9303986e+04   3.9422425e+04   3.9554007e+04   3.9697473e+04   3.9851404e+04   4.0014272e+04   4.0184480e+04   4.0360414e+04   4.0540480e+04   4.0723146e+04   4.0906981e+04   4.1090680e+04   4.1273089e+04   4.1453223e+04   4.1630271e+04   4.1803605e+04   4.1972775e+04   4.2137498e+04   4.2297648e+04   4.2453241e+04   4.2604412e+04   4.2751402e+04   4.2894528e+04   4.3034168e+04   4.3170743e+04   4.3304692e+04   4.3436461e+04   4.3566486e+04   4.3695182e+04   4.3822935e+04   4.3950089e+04   4.4076947e+04   4.4203767e+04   4.4330754e+04   4.4458071e+04
4.6207816e+04   4.5790101e+04   4.5342737e+04   4.4867062e+04   4.4365072e+04   4.3839452e+04   4.3293583e+04   4.2731530e+04   4.2158007e+04   4.1578318e+04   4.0998275e+04   4.0424092e+04   3.9862258e+04   3.9319395e+04   3.8802101e+04   3.8316783e+04   3.7869495e+04   3.7465766e+04   3.7110454e+04   3.6807602e+04   3.6560325e+04   3.6370717e+04   3.6239789e+04   3.6167443e+04   3.6152478e+04   3.6192624e+04   3.6284616e+04   3.6424290e+04   3.6606711e+04   3.6826310e+04   3.7077049e+04   3.7352578e+04   3.7646408e+04   3.7952075e+04   3.8263288e+04   3.8574074e+04   3.8878896e+04   3.9172758e+04   3.9451281e+04   3.9710757e+04   3.9948183e+04   4.0161271e+04   4.0348437e+04   4.0508772e+04   4.0642003e+04   4.0748429e+04   4.0828867e+04   4.0884570e+04   4.0917158e+04   4.0928541e+04   4.0920840e+04   4.0896316e+04   4.0857298e+04   4.0806122e+04   4.0745067e+04   4.0676307e+04   4.0601863e+04   4.0523567e+04   4.0443030e+04   4.0361622e+04   4.0280456e+04   4.0200385e+04   4.0122001e+04   4.0045651e+04   3.9971453e+04   3.9899323e+04   3.9829006e+04   3.9760122e+04   3.9692201e+04   3.9624736e+04   3.9557228e+04   3.9489235e+04   3.9420418e+04   3.9350583e+04   3.9279715e+04   3.9208007e+04   3.9135876e+04   3.9063977e+04   3.8993192e+04   3.8924626e+04   3.8859574e+04   3.8799493e+04   3.8745954e+04   3.8700597e+04   3.8665072e+04   3.8640984e+04   3.8629837e+04   3.8632977e+04   3.8651543e+04   3.8686427e+04   3.8738235e+04   3.8807268e+04   3.8893509e+04   3.8996620e+04   3.9115953e+04   3.9250573e+04   3.9399286e+04   3.9560682e+04   3.9733172e+04   3.9915046e+04   4.0104516e+04   4.0299773e+04   4.0499031e+04   4.0700576e+04   4.0902801e+04   4.1104243e+04   4.1303610e+04   4.1499795e+04   4.1691893e+04   4.1879197e+04   4.2061204e+04   4.2237598e+04   4.2408242e+04   4.2573156e+04   4.2732498e+04   4.2886542e+04   4.3035652e+04   4.3180264e+04   4.3320857e+04   4.3457938e+04   4.3592023e+04   4.3723616e+04   4.3853202e+04   4.3981232e+04   4.4108116e+04   4.4234217e+04   4.4359848e+04   4.4485268e+04   4.4610686e+04
4.6165970e+04   4.5743900e+04   4.5291948e+04   4.4811465e+04   4.4304466e+04   4.3773657e+04   4.3222444e+04   4.2654922e+04   4.2075836e+04   4.1490523e+04   4.0904832e+04   4.0325011e+04   3.9757590e+04   3.9209225e+04   3.8686549e+04   3.8196005e+04   3.7743674e+04   3.7335113e+04   3.6975201e+04   3.6667997e+04   3.6416626e+04   3.6223185e+04   3.6088684e+04   3.6013016e+04   3.5994960e+04   3.6032226e+04   3.6121517e+04   3.6258635e+04   3.6438601e+04   3.6655802e+04   3.6904147e+04   3.7177235e+04   3.7468520e+04   3.7771479e+04   3.8079765e+04   3.8387349e+04   3.8688642e+04   3.8978597e+04   3.9252790e+04   3.9507477e+04   3.9739626e+04   3.9946929e+04   4.0127793e+04   4.0281315e+04   4.0407236e+04   4.0505890e+04   4.0578134e+04   4.0625286e+04   4.0649038e+04   4.0651387e+04   4.0634556e+04   4.0600913e+04   4.0552908e+04   4.0492998e+04   4.0423589e+04   4.0346976e+04   4.0265300e+04   4.0180500e+04   4.0094283e+04   4.0008098e+04   3.9923118e+04   3.9840233e+04   3.9760050e+04   3.9682906e+04   3.9608882e+04   3.9537836e+04   3.9469438e+04   3.9403208e+04   3.9338568e+04   3.9274891e+04   3.9211555e+04   3.9147999e+04   3.9083771e+04   3.9018576e+04   3.8952318e+04   3.8885130e+04   3.8817394e+04   3.8749759e+04   3.8683128e+04   3.8618655e+04   3.8557710e+04   3.8501849e+04   3.8452760e+04   3.8412214e+04   3.8381999e+04   3.8363863e+04   3.8359443e+04   3.8370213e+04   3.8397419e+04   3.8442039e+04   3.8504741e+04   3.8585856e+04   3.8685367e+04   3.8802902e+04   3.8937752e+04   3.9088886e+04   3.9254991e+04   3.9434511e+04   3.9625697e+04   3.9826661e+04   4.0035431e+04   4.0250009e+04   4.0468423e+04   4.0688779e+04   4.0909302e+04   4.1128377e+04   4.1344574e+04   4.1556671e+04   4.1763665e+04   4.1964781e+04   4.2159460e+04   4.2347357e+04   4.2528323e+04   4.2702385e+04   4.2869724e+04   4.3030648e+04   4.3185570e+04   4.3334978e+04   4.3479417e+04   4.3619459e+04   4.3755688e+04   4.3888678e+04   4.4018983e+04   4.4147121e+04   4.4273565e+04   4.4398738e+04   4.4523010e+04   4.4646692e+04   4.4770040e+04
4.6126506e+04   4.5700525e+04   4.5244474e+04   4.4759720e+04   4.4248292e+04   4.3712915e+04   4.3157016e+04   4.2584710e+04   4.2000766e+04   4.1410548e+04   4.0819928e+04   4.0235183e+04   3.9662862e+04   3.9109650e+04   3.8582202e+04   3.8086979e+04   3.7630080e+04   3.7217078e+04   3.6852862e+04   3.6541498e+04   3.6286113e+04   3.6088802e+04   3.5950568e+04   3.5871292e+04   3.5849737e+04   3.5883591e+04   3.5969530e+04   3.6103326e+04   3.6279965e+04   3.6493796e+04   3.6738685e+04   3.7008187e+04   3.7295709e+04   3.7594682e+04   3.7898710e+04   3.8201717e+04   3.8498069e+04   3.8782678e+04   3.9051082e+04   3.9299506e+04   3.9524895e+04   3.9724926e+04   3.9898004e+04   4.0043232e+04   4.0160375e+04   4.0249801e+04   4.0312420e+04   4.0349613e+04   4.0363157e+04   4.0355142e+04   4.0327899e+04   4.0283920e+04   4.0225780e+04   4.0156072e+04   4.0077339e+04   3.9992014e+04   3.9902368e+04   3.9810461e+04   3.9718110e+04   3.9626852e+04   3.9537932e+04   3.9452285e+04   3.9370539e+04   3.9293024e+04   3.9219791e+04   3.9150639e+04   3.9085155e+04   3.9022757e+04   3.8962747e+04   3.8904369e+04   3.8846864e+04   3.8789535e+04   3.8731798e+04   3.8673240e+04   3.8613660e+04   3.8553110e+04   3.8491917e+04   3.8430698e+04   3.8370359e+04   3.8312078e+04   3.8257283e+04   3.8207607e+04   3.8164841e+04   3.8130868e+04   3.8107605e+04   3.8096928e+04   3.8100603e+04   3.8120221e+04   3.8157134e+04   3.8212405e+04   3.8286761e+04   3.8380569e+04   3.8493815e+04   3.8626103e+04   3.8776666e+04   3.8944390e+04   3.9127852e+04   3.9325363e+04   3.9535023e+04   3.9754779e+04   3.9982486e+04   4.0215969e+04   4.0453083e+04   4.0691763e+04   4.0930077e+04   4.1166263e+04   4.1398765e+04   4.1626251e+04   4.1847630e+04   4.2062057e+04   4.2268925e+04   4.2467863e+04   4.2658712e+04   4.2841506e+04   4.3016448e+04   4.3183883e+04   4.3344270e+04   4.3498152e+04   4.3646135e+04   4.3788854e+04   4.3926962e+04   4.4061101e+04   4.4191890e+04   4.4319913e+04   4.4445706e+04   4.4569752e+04   4.4692473e+04   4.4814233e+04   4.4935333e+04
4.6089092e+04   4.5659619e+04   4.5199940e+04   4.4711429e+04   4.4196133e+04   4.3656789e+04   4.3096841e+04   4.2520419e+04   4.1932309e+04   4.1337889e+04   4.0743047e+04   4.0154073e+04   3.9577532e+04   3.9020117e+04   3.8488494e+04   3.7989131e+04   3.7528132e+04   3.7111072e+04   3.6742841e+04   3.6427500e+04   3.6168173e+04   3.5966945e+04   3.5824807e+04   3.5741627e+04   3.5716151e+04   3.5746045e+04   3.5827965e+04   3.5957656e+04   3.6130076e+04   3.6339544e+04   3.6579893e+04   3.6844642e+04   3.7127164e+04   3.7420851e+04   3.7719270e+04   3.8016308e+04   3.8306295e+04   3.8584109e+04   3.8845262e+04   3.9085952e+04   3.9303110e+04   3.9494404e+04   3.9658240e+04   3.9793737e+04   3.9900685e+04   3.9979495e+04   4.0031133e+04   4.0057054e+04   4.0059120e+04   4.0039527e+04   4.0000723e+04   3.9945327e+04   3.9876055e+04   3.9795646e+04   3.9706792e+04   3.9612073e+04   3.9513902e+04   3.9414476e+04   3.9315728e+04   3.9219300e+04   3.9126513e+04   3.9038360e+04   3.8955495e+04   3.8878248e+04   3.8806638e+04   3.8740408e+04   3.8679058e+04   3.8621901e+04   3.8568113e+04   3.8516794e+04   3.8467038e+04   3.8417995e+04   3.8368932e+04   3.8319295e+04   3.8268760e+04   3.8217274e+04   3.8165083e+04   3.8112749e+04   3.8061152e+04   3.8011473e+04   3.7965171e+04   3.7923934e+04   3.7889631e+04   3.7864241e+04   3.7849788e+04   3.7848261e+04   3.7861542e+04   3.7891329e+04   3.7939073e+04   3.8005916e+04   3.8092648e+04   3.8199670e+04   3.8326977e+04   3.8474157e+04   3.8640396e+04   3.8824510e+04   3.9024977e+04   3.9239994e+04   3.9467525e+04   3.9705370e+04   3.9951230e+04   4.0202770e+04   4.0457685e+04   4.0713761e+04   4.0968919e+04   4.1221268e+04   4.1469135e+04   4.1711090e+04   4.1945962e+04   4.2172843e+04   4.2391086e+04   4.2600295e+04   4.2800304e+04   4.2991158e+04   4.3173081e+04   4.3346454e+04   4.3511780e+04   4.3669655e+04   4.3820742e+04   4.3965740e+04   4.4105363e+04   4.4240319e+04   4.4371292e+04   4.4498926e+04   4.4623816e+04   4.4746501e+04   4.4867457e+04   4.4987094e+04   4.5105759e+04
4.6053350e+04   4.5620781e+04   4.5157914e+04   4.4666137e+04   4.4147506e+04   4.3604772e+04   4.3041387e+04   4.2461493e+04   4.1869883e+04   4.1271943e+04   4.0673565e+04   4.0081043e+04   3.9500941e+04   3.8939953e+04   3.8404739e+04   3.7901762e+04   3.7437118e+04   3.7016374e+04   3.6644405e+04   3.6325263e+04   3.6062055e+04   3.5856853e+04   3.5710631e+04   3.5623241e+04   3.5593410e+04   3.5618786e+04   3.5696006e+04   3.5820795e+04   3.5988091e+04   3.6192188e+04   3.6426897e+04   3.6685714e+04   3.6961985e+04   3.7249075e+04   3.7540527e+04   3.7830200e+04   3.8112400e+04   3.8381982e+04   3.8634438e+04   3.8865952e+04   3.9073445e+04   3.9254586e+04   3.9407790e+04   3.9532196e+04   3.9627628e+04   3.9694544e+04   3.9733973e+04   3.9747449e+04   3.9736928e+04   3.9704718e+04   3.9653390e+04   3.9585701e+04   3.9504515e+04   3.9412725e+04   3.9313182e+04   3.9208624e+04   3.9101618e+04   3.8994502e+04   3.8889341e+04   3.8787886e+04   3.8691547e+04   3.8601379e+04   3.8518071e+04   3.8441954e+04   3.8373023e+04   3.8310961e+04   3.8255185e+04   3.8204895e+04   3.8159133e+04   3.8116851e+04   3.8076982e+04   3.8038507e+04   3.8000530e+04   3.7962336e+04   3.7923456e+04   3.7883706e+04   3.7843227e+04   3.7802500e+04   3.7762350e+04   3.7723935e+04   3.7688713e+04   3.7658402e+04   3.7634921e+04   3.7620320e+04   3.7616707e+04   3.7626164e+04   3.7650670e+04   3.7692018e+04   3.7751745e+04   3.7831068e+04   3.7930834e+04   3.8051482e+04   3.8193022e+04   3.8355031e+04   3.8536664e+04   3.8736679e+04   3.8953478e+04   3.9185159e+04   3.9429575e+04   3.9684401e+04   3.9947205e+04   4.0215517e+04   4.0486896e+04   4.0758995e+04   4.1029615e+04   4.1296749e+04   4.1558626e+04   4.1813731e+04   4.2060825e+04   4.2298948e+04   4.2527420e+04   4.2745823e+04   4.2953991e+04   4.3151977e+04   4.3340030e+04   4.3518563e+04   4.3688122e+04   4.3849353e+04   4.4002969e+04   4.4149730e+04   4.4290408e+04   4.4425770e+04   4.4556558e+04   4.4683474e+04   4.4807167e+04   4.4928228e+04   4.5047180e+04   4.5164479e+04   4.5280513e+04
4.6018863e+04   4.5583561e+04   4.5117917e+04   4.4623330e+04   4.4101867e+04   4.3556286e+04   4.2990047e+04   4.2407295e+04   4.1812824e+04   4.1212019e+04   4.0610766e+04   4.0015351e+04   3.9432327e+04   3.8868374e+04   3.8330134e+04   3.7824053e+04   3.7356206e+04   3.6932135e+04   3.6556696e+04   3.6233916e+04   3.5966880e+04   3.5757638e+04   3.5607143e+04   3.5515226e+04   3.5480598e+04   3.5500889e+04   3.5572720e+04   3.5691801e+04   3.5853056e+04   3.6050765e+04   3.6278728e+04   3.6530425e+04   3.6799189e+04   3.7078372e+04   3.7361502e+04   3.7642425e+04   3.7915433e+04   3.8175371e+04   3.8417722e+04   3.8638666e+04   3.8835126e+04   3.9004778e+04   3.9146056e+04   3.9258126e+04   3.9340853e+04   3.9394750e+04   3.9420916e+04   3.9420968e+04   3.9396965e+04   3.9351329e+04   3.9286763e+04   3.9206167e+04   3.9112559e+04   3.9008994e+04   3.8898486e+04   3.8783940e+04   3.8668083e+04   3.8553402e+04   3.8442099e+04   3.8336043e+04   3.8236738e+04   3.8145307e+04   3.8062477e+04   3.7988590e+04   3.7923612e+04   3.7867174e+04   3.7818605e+04   3.7776990e+04   3.7741237e+04   3.7710139e+04   3.7682458e+04   3.7656997e+04   3.7632677e+04   3.7608610e+04   3.7584156e+04   3.7558983e+04   3.7533097e+04   3.7506872e+04   3.7481048e+04   3.7456729e+04   3.7435343e+04   3.7418605e+04   3.7408454e+04   3.7406982e+04   3.7416353e+04   3.7438718e+04   3.7476131e+04   3.7530461e+04   3.7603319e+04   3.7695987e+04   3.7809363e+04   3.7943925e+04   3.8099703e+04   3.8276275e+04   3.8472775e+04   3.8687924e+04   3.8920067e+04   3.9167228e+04   3.9427174e+04   3.9697482e+04   3.9975618e+04   4.0259002e+04   4.0545087e+04   4.0831419e+04   4.1115701e+04   4.1395837e+04   4.1669975e+04   4.1936534e+04   4.2194221e+04   4.2442037e+04   4.2679275e+04   4.2905507e+04   4.3120565e+04   4.3324515e+04   4.3517630e+04   4.3700354e+04   4.3873270e+04   4.4037069e+04   4.4192513e+04   4.4340412e+04   4.4481591e+04   4.4616870e+04   4.4747043e+04   4.4872863e+04   4.4995026e+04   4.5114170e+04   4.5230860e+04   4.5345592e+04   4.5458792e+04
4.5985177e+04   4.5547469e+04   4.5079421e+04   4.4582445e+04   4.4058615e+04   4.3510696e+04   4.2942148e+04   4.2357116e+04   4.1760389e+04   4.1157340e+04   4.0553842e+04   3.9956160e+04   3.9370827e+04   3.8804492e+04   3.8263770e+04   3.7755075e+04   3.7284446e+04   3.6857393e+04   3.6478737e+04   3.6152471e+04   3.5881649e+04   3.5668291e+04   3.5513326e+04   3.5416560e+04   3.5376685e+04   3.5391316e+04   3.5457062e+04   3.5569622e+04   3.5723915e+04   3.5914216e+04   3.6134322e+04   3.6377712e+04   3.6637718e+04   3.6907691e+04   3.7181158e+04   3.7451967e+04   3.7714409e+04   3.7963334e+04   3.8194227e+04   3.8403278e+04   3.8587421e+04   3.8744353e+04   3.8872536e+04   3.8971174e+04   3.9040179e+04   3.9080126e+04   3.9092191e+04   3.9078080e+04   3.9039960e+04   3.8980372e+04   3.8902153e+04   3.8808353e+04   3.8702145e+04   3.8586748e+04   3.8465345e+04   3.8341009e+04   3.8216628e+04   3.8094844e+04   3.7977998e+04   3.7868078e+04   3.7766688e+04   3.7675021e+04   3.7593847e+04   3.7523517e+04   3.7463976e+04   3.7414800e+04   3.7375232e+04   3.7344245e+04   3.7320604e+04   3.7302943e+04   3.7289845e+04   3.7279926e+04   3.7271914e+04   3.7264728e+04   3.7257544e+04   3.7249856e+04   3.7241515e+04   3.7232757e+04   3.7224213e+04   3.7216897e+04   3.7212177e+04   3.7211731e+04   3.7217485e+04   3.7231539e+04   3.7256083e+04   3.7293309e+04   3.7345319e+04   3.7414039e+04   3.7501135e+04   3.7607942e+04   3.7735405e+04   3.7884038e+04   3.8053895e+04   3.8244564e+04   3.8455176e+04   3.8684431e+04   3.8930642e+04   3.9191786e+04   3.9465573e+04   3.9749517e+04   4.0041008e+04   4.0337394e+04   4.0636050e+04   4.0934450e+04   4.1230225e+04   4.1521216e+04   4.1805516e+04   4.2081497e+04   4.2347828e+04   4.2603487e+04   4.2847750e+04   4.3080185e+04   4.3300629e+04   4.3509163e+04   4.3706080e+04   4.3891853e+04   4.4067099e+04   4.4232548e+04   4.4389005e+04   4.4537321e+04   4.4678368e+04   4.4813009e+04   4.4942082e+04   4.5066383e+04   4.5186651e+04   4.5303560e+04   4.5417713e+04   4.5529640e+04   4.5639797e+04
4.5951807e+04   4.5511980e+04   4.5041862e+04   4.4542874e+04   4.4017100e+04   4.3467307e+04   4.2896955e+04   4.2310182e+04   4.1711764e+04   4.1107055e+04   4.0501905e+04   3.9902551e+04   3.9315487e+04   3.8747327e+04   3.8204641e+04   3.7693797e+04   3.7220791e+04   3.6791082e+04   3.6409445e+04   3.6079832e+04   3.5805255e+04   3.5587698e+04   3.5428056e+04   3.5326112e+04   3.5280537e+04   3.5288929e+04   3.5347890e+04   3.5453115e+04   3.5599523e+04   3.5781397e+04   3.5992539e+04   3.6226439e+04   3.6476444e+04   3.6735919e+04   3.6998406e+04   3.7257767e+04   3.7508312e+04   3.7744907e+04   3.7963058e+04   3.8158978e+04   3.8329628e+04   3.8472738e+04   3.8586807e+04   3.8671088e+04   3.8725552e+04   3.8750844e+04   3.8748221e+04   3.8719487e+04   3.8666916e+04   3.8593174e+04   3.8501235e+04   3.8394293e+04   3.8275681e+04   3.8148779e+04   3.8016938e+04   3.7883393e+04   3.7751196e+04   3.7623140e+04   3.7501701e+04   3.7388988e+04   3.7286702e+04   3.7196106e+04   3.7118013e+04   3.7052785e+04   3.7000348e+04   3.6960223e+04   3.6931571e+04   3.6913249e+04   3.6903883e+04   3.6901945e+04   3.6905837e+04   3.6913982e+04   3.6924906e+04   3.6937325e+04   3.6950216e+04   3.6962881e+04   3.6974994e+04   3.6986632e+04   3.6998283e+04   3.7010845e+04   3.7025590e+04   3.7044127e+04   3.7068333e+04   3.7100282e+04   3.7142157e+04   3.7196158e+04   3.7264410e+04   3.7348867e+04   3.7451234e+04   3.7572882e+04   3.7714796e+04   3.7877521e+04   3.8061141e+04   3.8265262e+04   3.8489026e+04   3.8731135e+04   3.8989893e+04   3.9263261e+04   3.9548925e+04   3.9844364e+04   4.0146935e+04   4.0453946e+04   4.0762731e+04   4.1070724e+04   4.1375519e+04   4.1674921e+04   4.1966995e+04   4.2250089e+04   4.2522856e+04   4.2784261e+04   4.3033579e+04   4.3270381e+04   4.3494514e+04   4.3706073e+04   4.3905375e+04   4.4092916e+04   4.4269344e+04   4.4435420e+04   4.4591982e+04   4.4739918e+04   4.4880133e+04   4.5013528e+04   4.5140975e+04   4.5263304e+04   4.5381285e+04   4.5495624e+04   4.5606954e+04   4.5715831e+04   4.5822736e+04
4.5918241e+04   4.5476538e+04   4.5004637e+04   4.4503971e+04   4.3976630e+04   4.3425382e+04   4.2853685e+04   4.2265663e+04   4.1666074e+04   4.1060248e+04   4.0454001e+04   3.9853528e+04   3.9265280e+04   3.8695817e+04   3.8151657e+04   3.7639106e+04   3.7164100e+04   3.6732042e+04   3.6347648e+04   3.6014814e+04   3.5736502e+04   3.5514652e+04   3.5350123e+04   3.5242667e+04   3.5190932e+04   3.5192506e+04   3.5243982e+04   3.5341058e+04   3.5478662e+04   3.5651091e+04   3.5852168e+04   3.6075408e+04   3.6314185e+04   3.6561895e+04   3.6812110e+04   3.7058729e+04   3.7296094e+04   3.7519107e+04   3.7723312e+04   3.7904963e+04   3.8061061e+04   3.8189385e+04   3.8288488e+04   3.8357683e+04   3.8397009e+04   3.8407188e+04   3.8389568e+04   3.8346052e+04   3.8279028e+04   3.8191283e+04   3.8085928e+04   3.7966300e+04   3.7835882e+04   3.7698214e+04   3.7556803e+04   3.7415044e+04   3.7276140e+04   3.7143026e+04   3.7018310e+04   3.6904212e+04   3.6802526e+04   3.6714580e+04   3.6641227e+04   3.6582839e+04   3.6539321e+04   3.6510143e+04   3.6494383e+04   3.6490788e+04   3.6497847e+04   3.6513872e+04   3.6537084e+04   3.6565710e+04   3.6598075e+04   3.6632684e+04   3.6668304e+04   3.6704035e+04   3.6739354e+04   3.6774155e+04   3.6808764e+04   3.6843930e+04   3.6880801e+04   3.6920880e+04   3.6965963e+04   3.7018061e+04   3.7079315e+04   3.7151900e+04   3.7237932e+04   3.7339371e+04   3.7457932e+04   3.7595012e+04   3.7751620e+04   3.7928331e+04   3.8125258e+04   3.8342035e+04   3.8577830e+04   3.8831367e+04   3.9100966e+04   3.9384603e+04   3.9679969e+04   3.9984553e+04   4.0295709e+04   4.0610745e+04   4.0926993e+04   4.1241882e+04   4.1553002e+04   4.1858158e+04   4.2155411e+04   4.2443111e+04   4.2719915e+04   4.2984793e+04   4.3237031e+04   4.3476212e+04   4.3702197e+04   4.3915101e+04   4.4115257e+04   4.4303188e+04   4.4479562e+04   4.4645166e+04   4.4800863e+04   4.4947567e+04   4.5086209e+04   4.5217715e+04   4.5342982e+04   4.5462863e+04   4.5578153e+04   4.5689579e+04   4.5797795e+04   4.5903378e+04   4.6006826e+04
4.5883950e+04   4.5440568e+04   4.4967122e+04   4.4465060e+04   4.3936478e+04   4.3384145e+04   4.2811511e+04   4.2222684e+04   4.1622398e+04   4.1015951e+04   4.0409116e+04   3.9808039e+04   3.9219114e+04   3.8648838e+04   3.8103659e+04   3.7589814e+04   3.7113167e+04   3.6679046e+04   3.6292098e+04   3.5956155e+04   3.5674118e+04   3.5447875e+04   3.5278243e+04   3.5164938e+04   3.5106586e+04   3.5100761e+04   3.5144053e+04   3.5232170e+04   3.5360055e+04   3.5522031e+04   3.5711953e+04   3.5923376e+04   3.6149717e+04   3.6384418e+04   3.6621106e+04   3.6853729e+04   3.7076685e+04   3.7284933e+04   3.7474074e+04   3.7640419e+04   3.7781033e+04   3.7893759e+04   3.7977219e+04   3.8030798e+04   3.8054618e+04   3.8049487e+04   3.8016849e+04   3.7958710e+04   3.7877571e+04   3.7776343e+04   3.7658263e+04   3.7526808e+04   3.7385601e+04   3.7238326e+04   3.7088638e+04   3.6940075e+04   3.6795975e+04   3.6659405e+04   3.6533086e+04   3.6419341e+04   3.6320040e+04   3.6236572e+04   3.6169821e+04   3.6120165e+04   3.6087487e+04   3.6071207e+04   3.6070322e+04   3.6083473e+04   3.6109018e+04   3.6145112e+04   3.6189805e+04   3.6241132e+04   3.6297216e+04   3.6356351e+04   3.6417094e+04   3.6478330e+04   3.6539331e+04   3.6599792e+04   3.6659854e+04   3.6720093e+04   3.6781503e+04   3.6845453e+04   3.6913620e+04   3.6987920e+04   3.7070416e+04   3.7163225e+04   3.7268422e+04   3.7387942e+04   3.7523491e+04   3.7676467e+04   3.7847894e+04   3.8038370e+04   3.8248036e+04   3.8476563e+04   3.8723156e+04   3.8986581e+04   3.9265200e+04   3.9557031e+04   3.9859810e+04   4.0171062e+04   4.0488185e+04   4.0808523e+04   4.1129442e+04   4.1448407e+04   4.1763039e+04   4.2071172e+04   4.2370896e+04   4.2660586e+04   4.2938925e+04   4.3204908e+04   4.3457841e+04   4.3697329e+04   4.3923256e+04   4.4135754e+04   4.4335178e+04   4.4522066e+04   4.4697106e+04   4.4861101e+04   4.5014932e+04   4.5159528e+04   4.5295835e+04   4.5424794e+04   4.5547317e+04   4.5664270e+04   4.5776462e+04   4.5884634e+04   4.5989450e+04   4.6091501e+04   4.6191296e+04
4.5848393e+04   4.5403477e+04   4.4928676e+04   4.4425448e+04   4.3895899e+04   4.3342796e+04   4.2769580e+04   4.2180339e+04   4.1579780e+04   4.0973158e+04   4.0366198e+04   3.9764988e+04   3.9175852e+04   3.8605214e+04   3.8059441e+04   3.7544686e+04   3.7066728e+04   3.6630809e+04   3.6241496e+04   3.5902543e+04   3.5616782e+04   3.5386040e+04   3.5211085e+04   3.5091593e+04   3.5026167e+04   3.5012367e+04   3.5046784e+04   3.5125139e+04   3.5242399e+04   3.5392924e+04   3.5570616e+04   3.5769081e+04   3.5981798e+04   3.6202277e+04   3.6424215e+04   3.6641634e+04   3.6849010e+04   3.7041379e+04   3.7214421e+04   3.7364530e+04   3.7488854e+04   3.7585318e+04   3.7652631e+04   3.7690268e+04   3.7698443e+04   3.7678062e+04   3.7630670e+04   3.7558381e+04   3.7463806e+04   3.7349974e+04   3.7220244e+04   3.7078217e+04   3.6927643e+04   3.6772335e+04   3.6616073e+04   3.6462517e+04   3.6315122e+04   3.6177061e+04   3.6051151e+04   3.5939795e+04   3.5844926e+04   3.5767976e+04   3.5709852e+04   3.5670930e+04   3.5651067e+04   3.5649630e+04   3.5665543e+04   3.5697346e+04   3.5743272e+04   3.5801332e+04   3.5869411e+04   3.5945365e+04   3.6027122e+04   3.6112774e+04   3.6200666e+04   3.6289471e+04   3.6378249e+04   3.6466488e+04   3.6554125e+04   3.6641546e+04   3.6729568e+04   3.6819393e+04   3.6912552e+04   3.7010831e+04   3.7116182e+04   3.7230630e+04   3.7356177e+04   3.7494704e+04   3.7647881e+04   3.7817090e+04   3.8003353e+04   3.8207281e+04   3.8429043e+04   3.8668349e+04   3.8924456e+04   3.9196187e+04   3.9481970e+04   3.9779893e+04   4.0087767e+04   4.0403194e+04   4.0723647e+04   4.1046545e+04   4.1369331e+04   4.1689537e+04   4.2004853e+04   4.2313174e+04   4.2612647e+04   4.2901700e+04   4.3179062e+04   4.3443769e+04   4.3695164e+04   4.3932883e+04   4.4156833e+04   4.4367172e+04   4.4564271e+04   4.4748684e+04   4.4921110e+04   4.5082362e+04   4.5233328e+04   4.5374944e+04   4.5508160e+04   4.5633923e+04   4.5753147e+04   4.5866702e+04   4.5975402e+04   4.6079989e+04   4.6181133e+04   4.6279428e+04   4.6375389e+04
4.5811027e+04   4.5364673e+04   4.4888650e+04   4.4384433e+04   4.3854135e+04   4.3300523e+04   4.2727024e+04   4.2137708e+04   4.1537244e+04   4.0930843e+04   4.0324173e+04   3.9723253e+04   3.9134331e+04   3.8563743e+04   3.8017766e+04   3.7502456e+04   3.7023492e+04   3.6586021e+04   3.6194515e+04   3.5852639e+04   3.5563146e+04   3.5327796e+04   3.5147296e+04   3.5021284e+04   3.4948331e+04   3.4925987e+04   3.4950846e+04   3.5018647e+04   3.5124390e+04   3.5262482e+04   3.5426883e+04   3.5611271e+04   3.5809203e+04   3.6014276e+04   3.6220278e+04   3.6421330e+04   3.6612009e+04   3.6787453e+04   3.6943447e+04   3.7076491e+04   3.7183836e+04   3.7263516e+04   3.7314343e+04   3.7335901e+04   3.7328508e+04   3.7293180e+04   3.7231566e+04   3.7145892e+04   3.7038878e+04   3.6913662e+04   3.6773712e+04   3.6622738e+04   3.6464599e+04   3.6303210e+04   3.6142453e+04   3.5986083e+04   3.5837642e+04   3.5700381e+04   3.5577185e+04   3.5470511e+04   3.5382332e+04   3.5314105e+04   3.5266744e+04   3.5240610e+04   3.5235531e+04   3.5250822e+04   3.5285332e+04   3.5337510e+04   3.5405477e+04   3.5487111e+04   3.5580149e+04   3.5682283e+04   3.5791260e+04   3.5904984e+04   3.6021600e+04   3.6139574e+04   3.6257755e+04   3.6375420e+04   3.6492296e+04   3.6608566e+04   3.6724846e+04   3.6842154e+04   3.6961845e+04   3.7085544e+04   3.7215061e+04   3.7352297e+04   3.7499148e+04   3.7657414e+04   3.7828703e+04   3.8014356e+04   3.8215378e+04   3.8432383e+04   3.8665564e+04   3.8914672e+04   3.9179021e+04   3.9457508e+04   3.9748649e+04   4.0050626e+04   4.0361353e+04   4.0678542e+04   4.0999778e+04   4.1322590e+04   4.1644532e+04   4.1963241e+04   4.2276508e+04   4.2582322e+04   4.2878915e+04   4.3164792e+04   4.3438748e+04   4.3699879e+04   4.3947577e+04   4.4181516e+04   4.4401638e+04   4.4608123e+04   4.4801360e+04   4.4981914e+04   4.5150492e+04   4.5307908e+04   4.5455050e+04   4.5592849e+04   4.5722252e+04   4.5844198e+04   4.5959596e+04   4.6069310e+04   4.6174146e+04   4.6274842e+04   4.6372064e+04   4.6466400e+04   4.6558366e+04
4.5771315e+04   4.5323566e+04   4.4846403e+04   4.4341318e+04   4.3810433e+04   4.3256515e+04   4.2682978e+04   4.2093866e+04   4.1493812e+04   4.0887975e+04   4.0281960e+04   3.9681708e+04   3.9093381e+04   3.8523219e+04   3.7977393e+04   3.7461852e+04   3.6982163e+04   3.6543365e+04   3.6149823e+04   3.5805101e+04   3.5511865e+04   3.5271794e+04   3.5085534e+04   3.4952672e+04   3.4871751e+04   3.4840307e+04   3.4854939e+04   3.4911410e+04   3.5004762e+04   3.5129459e+04   3.5279533e+04   3.5448749e+04   3.5630761e+04   3.5819274e+04   3.6008194e+04   3.6191761e+04   3.6364680e+04   3.6522218e+04   3.6660292e+04   3.6775531e+04   3.6865320e+04   3.6927819e+04   3.6961971e+04   3.6967480e+04   3.6944790e+04   3.6895030e+04   3.6819967e+04   3.6721933e+04   3.6603755e+04   3.6468670e+04   3.6320242e+04   3.6162269e+04   3.5998692e+04   3.5833504e+04   3.5670654e+04   3.5513958e+04   3.5367010e+04   3.5233105e+04   3.5115161e+04   3.5015657e+04   3.4936579e+04   3.4879381e+04   3.4844966e+04   3.4833669e+04   3.4845277e+04   3.4879051e+04   3.4933773e+04   3.5007807e+04   3.5099174e+04   3.5205641e+04   3.5324814e+04   3.5454242e+04   3.5591517e+04   3.5734369e+04   3.5880763e+04   3.6028973e+04   3.6177647e+04   3.6325855e+04   3.6473113e+04   3.6619392e+04   3.6765099e+04   3.6911045e+04   3.7058390e+04   3.7208571e+04   3.7363228e+04   3.7524107e+04   3.7692970e+04   3.7871505e+04   3.8061233e+04   3.8263432e+04   3.8479069e+04   3.8708751e+04   3.8952685e+04   3.9210663e+04   3.9482064e+04   3.9765867e+04   4.0060691e+04   4.0364836e+04   4.0676346e+04   4.0993069e+04   4.1312734e+04   4.1633014e+04   4.1951605e+04   4.2266284e+04   4.2574971e+04   4.2875780e+04   4.3167053e+04   4.3447396e+04   4.3715692e+04   4.3971110e+04   4.4213103e+04   4.4441396e+04   4.4655968e+04   4.4857024e+04   4.5044971e+04   4.5220384e+04   4.5383969e+04   4.5536536e+04   4.5678966e+04   4.5812177e+04   4.5937102e+04   4.6054664e+04   4.6165756e+04   4.6271225e+04   4.6371864e+04   4.6468396e+04   4.6561475e+04   4.6651680e+04   4.6739515e+04
4.5728741e+04   4.5279588e+04   4.4801311e+04   4.4295424e+04   4.3764057e+04   4.3209979e+04   4.2636591e+04   4.2047909e+04   4.1448525e+04   4.0843543e+04   4.0238496e+04   3.9639244e+04   3.9051850e+04   3.8482449e+04   3.7937096e+04   3.7421620e+04   3.6941465e+04   3.6501548e+04   3.6106114e+04   3.5758619e+04   3.5461625e+04   3.5216726e+04   3.5024496e+04   3.4884469e+04   3.4795152e+04   3.4754069e+04   3.4757827e+04   3.4802215e+04   3.4882327e+04   3.4992693e+04   3.5127432e+04   3.5280412e+04   3.5445404e+04   3.5616242e+04   3.5786972e+04   3.5951982e+04   3.6106131e+04   3.6244842e+04   3.6364192e+04   3.6460970e+04   3.6532718e+04   3.6577751e+04   3.6595160e+04   3.6584795e+04   3.6547234e+04   3.6483738e+04   3.6396190e+04   3.6287034e+04   3.6159194e+04   3.6015997e+04   3.5861081e+04   3.5698312e+04   3.5531685e+04   3.5365233e+04   3.5202939e+04   3.5048639e+04   3.4905939e+04   3.4778135e+04   3.4668138e+04   3.4578413e+04   3.4510922e+04   3.4467093e+04   3.4447787e+04   3.4453301e+04   3.4483371e+04   3.4537199e+04   3.4613505e+04   3.4710577e+04   3.4826356e+04   3.4958515e+04   3.5104557e+04   3.5261912e+04   3.5428044e+04   3.5600540e+04   3.5777208e+04   3.5956150e+04   3.6135832e+04   3.6315129e+04   3.6493354e+04   3.6670264e+04   3.6846053e+04   3.7021314e+04   3.7196991e+04   3.7374318e+04   3.7554736e+04   3.7739811e+04   3.7931144e+04   3.8130281e+04   3.8338631e+04   3.8557386e+04   3.8787458e+04   3.9029428e+04   3.9283509e+04   3.9549529e+04   3.9826932e+04   4.0114790e+04   4.0411834e+04   4.0716499e+04   4.1026979e+04   4.1341285e+04   4.1657313e+04   4.1972911e+04   4.2285944e+04   4.2594357e+04   4.2896231e+04   4.3189825e+04   4.3473619e+04   4.3746339e+04   4.4006974e+04   4.4254781e+04   4.4489287e+04   4.4710275e+04   4.4917764e+04   4.5111992e+04   4.5293380e+04   4.5462510e+04   4.5620086e+04   4.5766909e+04   4.5903841e+04   4.6031783e+04   4.6151645e+04   4.6264325e+04   4.6370692e+04   4.6471570e+04   4.6567726e+04   4.6659865e+04   4.6748619e+04   4.6834550e+04   4.6918150e+04
4.5682816e+04   4.5232199e+04   4.4752783e+04   4.4246104e+04   4.3714306e+04   4.3160159e+04   4.2587049e+04   4.1998967e+04   4.1400459e+04   4.0796571e+04   4.0192759e+04   3.9594791e+04   3.9008627e+04   3.8440285e+04   3.7895696e+04   3.7380554e+04   3.6900171e+04   3.6459327e+04   3.6062139e+04   3.5711938e+04   3.5411177e+04   3.5161351e+04   3.4962956e+04   3.4815465e+04   3.4717349e+04   3.4666116e+04   3.4658381e+04   3.4689967e+04   3.4756024e+04   3.4851159e+04   3.4969593e+04   3.5105312e+04   3.5252224e+04   3.5404315e+04   3.5555792e+04   3.5701222e+04   3.5835642e+04   3.5954663e+04   3.6054550e+04   3.6132280e+04   3.6185582e+04   3.6212950e+04   3.6213648e+04   3.6187692e+04   3.6135811e+04   3.6059404e+04   3.5960482e+04   3.5841594e+04   3.5705758e+04   3.5556374e+04   3.5397138e+04   3.5231952e+04   3.5064835e+04   3.4899825e+04   3.4740894e+04   3.4591855e+04   3.4456280e+04   3.4337421e+04   3.4238136e+04   3.4160832e+04   3.4107413e+04   3.4079242e+04   3.4077120e+04   3.4101279e+04   3.4151395e+04   3.4226609e+04   3.4325580e+04   3.4446536e+04   3.4587353e+04   3.4745634e+04   3.4918807e+04   3.5104219e+04   3.5299234e+04   3.5501333e+04   3.5708195e+04   3.5917783e+04   3.6128405e+04   3.6338760e+04   3.6547970e+04   3.6755591e+04   3.6961599e+04   3.7166366e+04   3.7370614e+04   3.7575351e+04   3.7781803e+04   3.7991332e+04   3.8205351e+04   3.8425242e+04   3.8652275e+04   3.8887534e+04   3.9131853e+04   3.9385772e+04   3.9649497e+04   3.9922885e+04   4.0205442e+04   4.0496332e+04   4.0794409e+04   4.1098253e+04   4.1406224e+04   4.1716512e+04   4.2027205e+04   4.2336345e+04   4.2641994e+04   4.2942286e+04   4.3235485e+04   4.3520020e+04   4.3794528e+04   4.4057874e+04   4.4309167e+04   4.4547768e+04   4.4773286e+04   4.4985570e+04   4.5184687e+04   4.5370905e+04   4.5544665e+04   4.5706551e+04   4.5857264e+04   4.5997587e+04   4.6128364e+04   4.6250468e+04   4.6364780e+04   4.6472167e+04   4.6573467e+04   4.6669471e+04   4.6760917e+04   4.6848482e+04   4.6932773e+04   4.7014330e+04   4.7093624e+04
4.5633091e+04   4.5180903e+04   4.4700271e+04   4.4192759e+04   4.3660528e+04   4.3106347e+04   4.2533593e+04   4.1946227e+04   4.1348750e+04   4.0746144e+04   4.0143784e+04   3.9547343e+04   3.8962667e+04   3.8395649e+04   3.7852083e+04   3.7337523e+04   3.6857132e+04   3.6415545e+04   3.6016734e+04   3.5663899e+04   3.5359369e+04   3.5104534e+04   3.4899799e+04   3.4744575e+04   3.4637288e+04   3.4575429e+04   3.4555624e+04   3.4573732e+04   3.4624964e+04   3.4704018e+04   3.4805227e+04   3.4922711e+04   3.5050534e+04   3.5182857e+04   3.5314076e+04   3.5438955e+04   3.5552743e+04   3.5651268e+04   3.5731012e+04   3.5789171e+04   3.5823685e+04   3.5833259e+04   3.5817352e+04   3.5776165e+04   3.5710594e+04   3.5622189e+04   3.5513089e+04   3.5385952e+04   3.5243878e+04   3.5090327e+04   3.4929028e+04   3.4763894e+04   3.4598929e+04   3.4438137e+04   3.4285434e+04   3.4144564e+04   3.4019015e+04   3.3911942e+04   3.3826106e+04   3.3763810e+04   3.3726856e+04   3.3716510e+04   3.3733480e+04   3.3777916e+04   3.3849417e+04   3.3947063e+04   3.4069455e+04   3.4214772e+04   3.4380845e+04   3.4565237e+04   3.4765331e+04   3.4978424e+04   3.5201824e+04   3.5432937e+04   3.5669358e+04   3.5908942e+04   3.6149870e+04   3.6390694e+04   3.6630365e+04   3.6868251e+04   3.7104120e+04   3.7338125e+04   3.7570757e+04   3.7802792e+04   3.8035223e+04   3.8269190e+04   3.8505898e+04   3.8746539e+04   3.8992220e+04   3.9243894e+04   3.9502298e+04   3.9767911e+04   4.0040918e+04   4.0321193e+04   4.0608296e+04   4.0901483e+04   4.1199732e+04   4.1501774e+04   4.1806143e+04   4.2111223e+04   4.2415306e+04   4.2716647e+04   4.3013522e+04   4.3304274e+04   4.3587368e+04   4.3861421e+04   4.4125243e+04   4.4377852e+04   4.4618493e+04   4.4846640e+04   4.5061994e+04   4.5264476e+04   4.5454207e+04   4.5631488e+04   4.5796778e+04   4.5950666e+04   4.6093844e+04   4.6227079e+04   4.6351187e+04   4.6467012e+04   4.6575400e+04   4.6677181e+04   4.6773154e+04   4.6864076e+04   4.6950649e+04   4.7033516e+04   4.7113254e+04   4.7190376e+04   4.7265329e+04
4.5579173e+04   4.5125260e+04   4.4643289e+04   4.4134855e+04   4.3602136e+04   4.3047908e+04   4.2475536e+04   4.1888952e+04   4.1292612e+04   4.0691429e+04   4.0090697e+04   3.9495984e+04   3.8913017e+04   3.8347556e+04   3.7805249e+04   3.7291498e+04   3.6811307e+04   3.6369153e+04   3.5968855e+04   3.5613466e+04   3.5305183e+04   3.5045278e+04   3.4834061e+04   3.4670870e+04   3.4554083e+04   3.4481171e+04   3.4448772e+04   3.4452782e+04   3.4488482e+04   3.4550668e+04   3.4633796e+04   3.4732138e+04   3.4839933e+04   3.4951535e+04   3.5061552e+04   3.5164978e+04   3.5257297e+04   3.5334582e+04   3.5393564e+04   3.5431684e+04   3.5447127e+04   3.5438829e+04   3.5406473e+04   3.5350460e+04   3.5271873e+04   3.5172420e+04   3.5054375e+04   3.4920500e+04   3.4773970e+04   3.4618285e+04   3.4457186e+04   3.4294566e+04   3.4134378e+04   3.3980550e+04   3.3836897e+04   3.3707042e+04   3.3594337e+04   3.3501792e+04   3.3432018e+04   3.3387167e+04   3.3368896e+04   3.3378337e+04   3.3416076e+04   3.3482157e+04   3.3576093e+04   3.3696894e+04   3.3843109e+04   3.4012882e+04   3.4204023e+04   3.4414079e+04   3.4640424e+04   3.4880346e+04   3.5131133e+04   3.5390165e+04   3.5654990e+04   3.5923400e+04   3.6193482e+04   3.6463675e+04   3.6732786e+04   3.7000014e+04   3.7264936e+04   3.7527490e+04   3.7787939e+04   3.8046820e+04   3.8304885e+04   3.8563034e+04   3.8822246e+04   3.9083504e+04   3.9347731e+04   3.9615724e+04   3.9888103e+04   4.0165266e+04   4.0447360e+04   4.0734261e+04   4.1025575e+04   4.1320641e+04   4.1618556e+04   4.1918204e+04   4.2218297e+04   4.2517419e+04   4.2814075e+04   4.3106745e+04   4.3393927e+04   4.3674191e+04   4.3946212e+04   4.4208813e+04   4.4460985e+04   4.4701915e+04   4.4930991e+04   4.5147810e+04   4.5352175e+04   4.5544082e+04   4.5723710e+04   4.5891398e+04   4.6047624e+04   4.6192980e+04   4.6328151e+04   4.6453884e+04   4.6570967e+04   4.6680209e+04   4.6782417e+04   4.6878382e+04   4.6968862e+04   4.7054572e+04   4.7136175e+04   4.7214277e+04   4.7289421e+04   4.7362092e+04   4.7432708e+04
4.5520733e+04   4.5064902e+04   4.4581426e+04   4.4071934e+04   4.3538629e+04   4.2984293e+04   4.2412282e+04   4.1826501e+04   4.1231358e+04   4.0631699e+04   4.0032729e+04   3.9439909e+04   3.8858841e+04   3.8295143e+04   3.7754311e+04   3.7241581e+04   3.6761790e+04   3.6319247e+04   3.5917604e+04   3.5559757e+04   3.5247761e+04   3.4982759e+04   3.4764958e+04   3.4593614e+04   3.4467054e+04   3.4382726e+04   3.4337276e+04   3.4326644e+04   3.4346182e+04   3.4390793e+04   3.4455070e+04   3.4533449e+04   3.4620362e+04   3.4710375e+04   3.4798335e+04   3.4879485e+04   3.4949575e+04   3.5004950e+04   3.5042617e+04   3.5060293e+04   3.5056432e+04   3.5030230e+04   3.4981612e+04   3.4911203e+04   3.4820284e+04   3.4710733e+04   3.4584959e+04   3.4445827e+04   3.4296576e+04   3.4140731e+04   3.3982019e+04   3.3824283e+04   3.3671388e+04   3.3527142e+04   3.3395214e+04   3.3279056e+04   3.3181832e+04   3.3106357e+04   3.3055038e+04   3.3029832e+04   3.3032208e+04   3.3063125e+04   3.3123017e+04   3.3211803e+04   3.3328893e+04   3.3473226e+04   3.3643303e+04   3.3837249e+04   3.4052871e+04   3.4287734e+04   3.4539237e+04   3.4804697e+04   3.5081431e+04   3.5366834e+04   3.5658456e+04   3.5954064e+04   3.6251699e+04   3.6549718e+04   3.6846819e+04   3.7142055e+04   3.7434832e+04   3.7724885e+04   3.8012256e+04   3.8297243e+04   3.8580348e+04   3.8862224e+04   3.9143607e+04   3.9425253e+04   3.9707880e+04   3.9992111e+04   4.0278425e+04   4.0567120e+04   4.0858286e+04   4.1151786e+04   4.1447255e+04   4.1744104e+04   4.2041544e+04   4.2338604e+04   4.2634173e+04   4.2927034e+04   4.3215911e+04   4.3499509e+04   4.3776560e+04   4.4045864e+04   4.4306317e+04   4.4556953e+04   4.4796959e+04   4.5025692e+04   4.5242696e+04   4.5447696e+04   4.5640601e+04   4.5821490e+04   4.5990603e+04   4.6148319e+04   4.6295137e+04   4.6431656e+04   4.6558549e+04   4.6676546e+04   4.6786405e+04   4.6888898e+04   4.6984795e+04   4.7074841e+04   4.7159751e+04   4.7240197e+04   4.7316802e+04   4.7390130e+04   4.7460692e+04   4.7528936e+04   4.7595255e+04
4.5457519e+04   4.4999541e+04   4.4514356e+04   4.4003635e+04   4.3469605e+04   4.2915059e+04   4.2343349e+04   4.1758351e+04   4.1164426e+04   4.0566353e+04   3.9969245e+04   3.9378452e+04   3.8799446e+04   3.8237696e+04   3.7698536e+04   3.7187031e+04   3.6707841e+04   3.6265091e+04   3.5862261e+04   3.5502077e+04   3.5186439e+04   3.4916357e+04   3.4691920e+04   3.4512298e+04   3.4375760e+04   3.4279730e+04   3.4220858e+04   3.4195129e+04   3.4197974e+04   3.4224407e+04   3.4269169e+04   3.4326873e+04   3.4392158e+04   3.4459826e+04   3.4524979e+04   3.4583134e+04   3.4630333e+04   3.4663217e+04   3.4679097e+04   3.4675994e+04   3.4652654e+04   3.4608556e+04   3.4543890e+04   3.4459521e+04   3.4356942e+04   3.4238207e+04   3.4105866e+04   3.3962881e+04   3.3812542e+04   3.3658384e+04   3.3504098e+04   3.3353443e+04   3.3210161e+04   3.3077901e+04   3.2960137e+04   3.2860103e+04   3.2780726e+04   3.2724573e+04   3.2693804e+04   3.2690129e+04   3.2714791e+04   3.2768540e+04   3.2851631e+04   3.2963833e+04   3.3104446e+04   3.3272330e+04   3.3465949e+04   3.3683418e+04   3.3922568e+04   3.4181009e+04   3.4456203e+04   3.4745537e+04   3.5046401e+04   3.5356252e+04   3.5672686e+04   3.5993495e+04   3.6316713e+04   3.6640657e+04   3.6963948e+04   3.7285526e+04   3.7604644e+04   3.7920856e+04   3.8233989e+04   3.8544105e+04   3.8851460e+04   3.9156448e+04   3.9459551e+04   3.9761285e+04   4.0062145e+04   4.0362559e+04   4.0662847e+04   4.0963185e+04   4.1263586e+04   4.1563880e+04   4.1863717e+04   4.2162567e+04   4.2459738e+04   4.2754396e+04   4.3045599e+04   4.3332326e+04   4.3613514e+04   4.3888096e+04   4.4155037e+04   4.4413366e+04   4.4662210e+04   4.4900814e+04   4.5128563e+04   4.5344995e+04   4.5549811e+04   4.5742869e+04   4.5924189e+04   4.6093937e+04   4.6252417e+04   4.6400050e+04   4.6537361e+04   4.6664955e+04   4.6783498e+04   4.6893699e+04   4.6996289e+04   4.7092004e+04   4.7181573e+04   4.7265699e+04   4.7345052e+04   4.7420260e+04   4.7491903e+04   4.7560507e+04   4.7626543e+04   4.7690429e+04   4.7752525e+04
4.5389369e+04   4.4928987e+04   4.4441861e+04   4.3929705e+04   4.3394777e+04   4.2839888e+04   4.2268381e+04   4.1684112e+04   4.1091395e+04   4.0494938e+04   3.9899764e+04   3.9311107e+04   3.8734304e+04   3.8174670e+04   3.7637372e+04   3.7127294e+04   3.6648906e+04   3.6206147e+04   3.5802308e+04   3.5439940e+04   3.5120774e+04   3.4845677e+04   3.4614615e+04   3.4426663e+04   3.4280027e+04   3.4172098e+04   3.4099537e+04   3.4058368e+04   3.4044106e+04   3.4051883e+04   3.4076594e+04   3.4113045e+04   3.4156094e+04   3.4200795e+04   3.4242524e+04   3.4277096e+04   3.4300863e+04   3.4310790e+04   3.4304514e+04   3.4280381e+04   3.4237456e+04   3.4175520e+04   3.4095047e+04   3.3997157e+04   3.3883564e+04   3.3756508e+04   3.3618677e+04   3.3473126e+04   3.3323189e+04   3.3172391e+04   3.3024362e+04   3.2882749e+04   3.2751138e+04   3.2632977e+04   3.2531505e+04   3.2449692e+04   3.2390181e+04   3.2355246e+04   3.2346750e+04   3.2366120e+04   3.2414330e+04   3.2491891e+04   3.2598853e+04   3.2734817e+04   3.2898960e+04   3.3090064e+04   3.3306559e+04   3.3546568e+04   3.3807967e+04   3.4088441e+04   3.4385550e+04   3.4696793e+04   3.5019673e+04   3.5351757e+04   3.5690735e+04   3.6034466e+04   3.6381022e+04   3.6728722e+04   3.7076145e+04   3.7422148e+04   3.7765860e+04   3.8106668e+04   3.8444201e+04   3.8778294e+04   3.9108954e+04   3.9436317e+04   3.9760603e+04   4.0082073e+04   4.0400986e+04   4.0717557e+04   4.1031928e+04   4.1344133e+04   4.1654088e+04   4.1961573e+04   4.2266231e+04   4.2567572e+04   4.2864988e+04   4.3157769e+04   4.3445130e+04   4.3726233e+04   4.4000224e+04   4.4266255e+04   4.4523520e+04   4.4771280e+04   4.5008883e+04   4.5235790e+04   4.5451586e+04   4.5655989e+04   4.5848858e+04   4.6030191e+04   4.6200118e+04   4.6358897e+04   4.6506897e+04   4.6644587e+04   4.6772516e+04   4.6891300e+04   4.7001600e+04   4.7104108e+04   4.7199527e+04   4.7288560e+04   4.7371896e+04   4.7450195e+04   4.7524086e+04   4.7594151e+04   4.7660930e+04   4.7724908e+04   4.7786522e+04   4.7846154e+04   4.7904136e+04
4.5316222e+04   4.4853157e+04   4.4363834e+04   4.3850014e+04   4.3313993e+04   4.2758597e+04   4.2187172e+04   4.1603552e+04   4.1012004e+04   4.0417170e+04   3.9823978e+04   3.9237547e+04   3.8663073e+04   3.8105716e+04   3.7570464e+04   3.7062015e+04   3.6584645e+04   3.6142092e+04   3.5737452e+04   3.5373088e+04   3.5050559e+04   3.4770574e+04   3.4532971e+04   3.4336721e+04   3.4179960e+04   3.4060047e+04   3.3973644e+04   3.3916823e+04   3.3885178e+04   3.3873968e+04   3.3878249e+04   3.3893027e+04   3.3913394e+04   3.3934670e+04   3.3952521e+04   3.3963079e+04   3.3963026e+04   3.3949670e+04   3.3920995e+04   3.3875693e+04   3.3813165e+04   3.3733516e+04   3.3637514e+04   3.3526549e+04   3.3402564e+04   3.3267989e+04   3.3125649e+04   3.2978688e+04   3.2830469e+04   3.2684493e+04   3.2544305e+04   3.2413416e+04   3.2295221e+04   3.2192934e+04   3.2109518e+04   3.2047638e+04   3.2009613e+04   3.1997380e+04   3.2012468e+04   3.2055982e+04   3.2128595e+04   3.2230549e+04   3.2361666e+04   3.2521366e+04   3.2708694e+04   3.2922354e+04   3.3160748e+04   3.3422023e+04   3.3704120e+04   3.4004830e+04   3.4321842e+04   3.4652805e+04   3.4995379e+04   3.5347283e+04   3.5706344e+04   3.6070534e+04   3.6438007e+04   3.6807118e+04   3.7176444e+04   3.7544790e+04   3.7911186e+04   3.8274877e+04   3.8635307e+04   3.8992095e+04   3.9345004e+04   3.9693911e+04   4.0038771e+04   4.0379581e+04   4.0716351e+04   4.1049070e+04   4.1377681e+04   4.1702063e+04   4.2022011e+04   4.2337235e+04   4.2647352e+04   4.2951896e+04   4.3250322e+04   4.3542027e+04   4.3826367e+04   4.4102676e+04   4.4370294e+04   4.4628584e+04   4.4876961e+04   4.5114907e+04   4.5341991e+04   4.5557883e+04   4.5762365e+04   4.5955336e+04   4.6136812e+04   4.6306929e+04   4.6465932e+04   4.6614169e+04   4.6752080e+04   4.6880182e+04   4.6999053e+04   4.7109322e+04   4.7211647e+04   4.7306705e+04   4.7395177e+04   4.7477733e+04   4.7555026e+04   4.7627677e+04   4.7696271e+04   4.7761353e+04   4.7823418e+04   4.7882917e+04   4.7940249e+04   4.7995765e+04   4.8049769e+04
4.5238124e+04   4.4772089e+04   4.4280299e+04   4.3764572e+04   4.3227242e+04   4.2671160e+04   4.2099677e+04   4.1516605e+04   4.0926172e+04   4.0332950e+04   3.9741774e+04   3.9157646e+04   3.8585620e+04   3.8030693e+04   3.7497675e+04   3.6991067e+04   3.6514944e+04   3.6072838e+04   3.5667640e+04   3.5301516e+04   3.4975843e+04   3.4691166e+04   3.4447185e+04   3.4242762e+04   3.4075958e+04   3.3944094e+04   3.3843834e+04   3.3771290e+04   3.3722146e+04   3.3691784e+04   3.3675432e+04   3.3668302e+04   3.3665731e+04   3.3663315e+04   3.3657028e+04   3.3643329e+04   3.3619248e+04   3.3582453e+04   3.3531293e+04   3.3464820e+04   3.3382788e+04   3.3285636e+04   3.3174442e+04   3.3050872e+04   3.2917105e+04   3.2775758e+04   3.2629797e+04   3.2482442e+04   3.2337077e+04   3.2197161e+04   3.2066136e+04   3.1947349e+04   3.1843979e+04   3.1758970e+04   3.1694980e+04   3.1654332e+04   3.1638985e+04   3.1650504e+04   3.1690051e+04   3.1758376e+04   3.1855827e+04   3.1982352e+04   3.2137528e+04   3.2320583e+04   3.2530424e+04   3.2765677e+04   3.3024726e+04   3.3305755e+04   3.3606793e+04   3.3925758e+04   3.4260504e+04   3.4608863e+04   3.4968688e+04   3.5337892e+04   3.5714479e+04   3.6096575e+04   3.6482453e+04   3.6870544e+04   3.7259457e+04   3.7647974e+04   3.8035054e+04   3.8419820e+04   3.8801552e+04   3.9179662e+04   3.9553680e+04   3.9923225e+04   4.0287985e+04   4.0647690e+04   4.1002090e+04   4.1350935e+04   4.1693959e+04   4.2030862e+04   4.2361307e+04   4.2684911e+04   4.3001248e+04   4.3309851e+04   4.3610224e+04   4.3901849e+04   4.4184208e+04   4.4456788e+04   4.4719108e+04   4.4970730e+04   4.5211275e+04   4.5440438e+04   4.5657999e+04   4.5863831e+04   4.6057907e+04   4.6240302e+04   4.6411188e+04   4.6570837e+04   4.6719608e+04   4.6857942e+04   4.6986349e+04   4.7105396e+04   4.7215696e+04   4.7317890e+04   4.7412640e+04   4.7500611e+04   4.7582464e+04   4.7658841e+04   4.7730362e+04   4.7797612e+04   4.7861138e+04   4.7921445e+04   4.7978994e+04   4.8034197e+04   4.8087421e+04   4.8138987e+04   4.8189172e+04
4.5155244e+04   4.4685946e+04   4.4191416e+04   4.3673532e+04   4.3134672e+04   4.2577717e+04   4.2006025e+04   4.1423393e+04   4.0834008e+04   4.0242379e+04   3.9653246e+04   3.9071492e+04   3.8502031e+04   3.7949691e+04   3.7419099e+04   3.6914558e+04   3.6439933e+04   3.5998543e+04   3.5593068e+04   3.5225470e+04   3.4896934e+04   3.4607836e+04   3.4357729e+04   3.4145361e+04   3.3968712e+04   3.3825060e+04   3.3711069e+04   3.3622894e+04   3.3556304e+04   3.3506813e+04   3.3469821e+04   3.3440752e+04   3.3415198e+04   3.3389041e+04   3.3358570e+04   3.3320588e+04   3.3272482e+04   3.3212293e+04   3.3138747e+04   3.3051268e+04   3.2949975e+04   3.2835648e+04   3.2709682e+04   3.2574023e+04   3.2431090e+04   3.2283687e+04   3.2134910e+04   3.1988052e+04   3.1846505e+04   3.1713670e+04   3.1592867e+04   3.1487258e+04   3.1399780e+04   3.1333084e+04   3.1289492e+04   3.1270958e+04   3.1279051e+04   3.1314938e+04   3.1379387e+04   3.1472771e+04   3.1595087e+04   3.1745980e+04   3.1924766e+04   3.2130471e+04   3.2361865e+04   3.2617500e+04   3.2895749e+04   3.3194846e+04   3.3512928e+04   3.3848063e+04   3.4198296e+04   3.4561674e+04   3.4936276e+04   3.5320240e+04   3.5711787e+04   3.6109230e+04   3.6510995e+04   3.6915627e+04   3.7321792e+04   3.7728283e+04   3.8134011e+04   3.8538001e+04   3.8939383e+04   3.9337381e+04   3.9731297e+04   4.0120502e+04   4.0504416e+04   4.0882500e+04   4.1254240e+04   4.1619140e+04   4.1976709e+04   4.2326459e+04   4.2667901e+04   4.3000544e+04   4.3323899e+04   4.3637480e+04   4.3940819e+04   4.4233466e+04   4.4515004e+04   4.4785061e+04   4.5043314e+04   4.5289508e+04   4.5523455e+04   4.5745052e+04   4.5954276e+04   4.6151194e+04   4.6335963e+04   4.6508825e+04   4.6670105e+04   4.6820209e+04   4.6959606e+04   4.7088831e+04   4.7208465e+04   4.7319127e+04   4.7421464e+04   4.7516138e+04   4.7603814e+04   4.7685151e+04   4.7760794e+04   4.7831361e+04   4.7897444e+04   4.7959595e+04   4.8018328e+04   4.8074112e+04   4.8127374e+04   4.8178495e+04   4.8227812e+04   4.8275616e+04   4.8322161e+04
4.5067875e+04   4.4595030e+04   4.4097493e+04   4.3577205e+04   4.3036598e+04   4.2478583e+04   4.1906531e+04   4.1324229e+04   4.0735827e+04   4.0145769e+04   3.9558705e+04   3.8979400e+04   3.8412622e+04   3.7863033e+04   3.7335074e+04   3.6832843e+04   3.6359992e+04   3.5919621e+04   3.5514193e+04   3.5145458e+04   3.4814405e+04   3.4521233e+04   3.4265344e+04   3.4045363e+04   3.3859186e+04   3.3704046e+04   3.3576605e+04   3.3473057e+04   3.3389259e+04   3.3320855e+04   3.3263423e+04   3.3212607e+04   3.3164255e+04   3.3114542e+04   3.3060083e+04   3.2998029e+04   3.2926136e+04   3.2842824e+04   3.2747202e+04   3.2639078e+04   3.2518937e+04   3.2387907e+04   3.2247702e+04   3.2100549e+04   3.1949101e+04   3.1796347e+04   3.1645507e+04   3.1499936e+04   3.1363022e+04   3.1238093e+04   3.1128330e+04   3.1036693e+04   3.0965857e+04   3.0918158e+04   3.0895559e+04   3.0899626e+04   3.0931517e+04   3.0991981e+04   3.1081372e+04   3.1199672e+04   3.1346517e+04   3.1521231e+04   3.1722867e+04   3.1950249e+04   3.2202006e+04   3.2476623e+04   3.2772471e+04   3.3087848e+04   3.3421011e+04   3.3770203e+04   3.4133679e+04   3.4509725e+04   3.4896675e+04   3.5292923e+04   3.5696929e+04   3.6107229e+04   3.6522429e+04   3.6941215e+04   3.7362342e+04   3.7784634e+04   3.8206980e+04   3.8628327e+04   3.9047676e+04   3.9464074e+04   3.9876610e+04   4.0284412e+04   4.0686641e+04   4.1082489e+04   4.1471178e+04   4.1851957e+04   4.2224106e+04   4.2586938e+04   4.2939799e+04   4.3282075e+04   4.3613196e+04   4.3932643e+04   4.4239953e+04   4.4534725e+04   4.4816629e+04   4.5085406e+04   4.5340878e+04   4.5582953e+04   4.5811620e+04   4.6026957e+04   4.6229130e+04   4.6418386e+04   4.6595054e+04   4.6759537e+04   4.6912308e+04   4.7053896e+04   4.7184884e+04   4.7305895e+04   4.7417581e+04   4.7520616e+04   4.7615684e+04   4.7703467e+04   4.7784639e+04   4.7859858e+04   4.7929755e+04   4.7994932e+04   4.8055954e+04   4.8113347e+04   4.8167594e+04   4.8219136e+04   4.8268369e+04   4.8315643e+04   4.8361269e+04   4.8405516e+04   4.8448612e+04
4.4976439e+04   4.4499781e+04   4.3998986e+04   4.3476065e+04   4.2933505e+04   4.2374256e+04   4.1801704e+04   4.1219631e+04   4.0632154e+04   4.0043653e+04   3.9458692e+04   3.8881917e+04   3.8317952e+04   3.7771292e+04   3.7246186e+04   3.6746529e+04   3.6275755e+04   3.5836741e+04   3.5431727e+04   3.5062246e+04   3.4729088e+04   3.4432266e+04   3.4171027e+04   3.3943871e+04   3.3748606e+04   3.3582416e+04   3.3441956e+04   3.3323463e+04   3.3222878e+04   3.3135981e+04   3.3058527e+04   3.2986382e+04   3.2915654e+04   3.2842819e+04   3.2764818e+04   3.2679157e+04   3.2583964e+04   3.2478044e+04   3.2360894e+04   3.2232701e+04   3.2094322e+04   3.1947232e+04   3.1793459e+04   3.1635509e+04   3.1476264e+04   3.1318888e+04   3.1166716e+04   3.1023155e+04   3.0891575e+04   3.0775218e+04   3.0677112e+04   3.0599999e+04   3.0546275e+04   3.0517947e+04   3.0516606e+04   3.0543413e+04   3.0599102e+04   3.0683993e+04   3.0798018e+04   3.0940758e+04   3.1111480e+04   3.1309190e+04   3.1532674e+04   3.1780551e+04   3.2051321e+04   3.2343402e+04   3.2655175e+04   3.2985012e+04   3.3331306e+04   3.3692486e+04   3.4067037e+04   3.4453503e+04   3.4850492e+04   3.5256674e+04   3.5670775e+04   3.6091569e+04   3.6517872e+04   3.6948530e+04   3.7382408e+04   3.7818388e+04   3.8255354e+04   3.8692196e+04   3.9127801e+04   3.9561057e+04   3.9990855e+04   4.0416089e+04   4.0835670e+04   4.1248527e+04   4.1653617e+04   4.2049940e+04   4.2436541e+04   4.2812525e+04   4.3177068e+04   4.3529419e+04   4.3868917e+04   4.4194990e+04   4.4507165e+04   4.4805073e+04   4.5088447e+04   4.5357128e+04   4.5611062e+04   4.5850298e+04   4.6074987e+04   4.6285373e+04   4.6481791e+04   4.6664656e+04   4.6834459e+04   4.6991754e+04   4.7137149e+04   4.7271296e+04   4.7394884e+04   4.7508621e+04   4.7613232e+04   4.7709443e+04   4.7797976e+04   4.7879539e+04   4.7954816e+04   4.8024467e+04   4.8089115e+04   4.8149349e+04   4.8205713e+04   4.8258711e+04   4.8308802e+04   4.8356399e+04   4.8401873e+04   4.8445549e+04   4.8487715e+04   4.8528617e+04   4.8568465e+04
