6.8888911e+04   6.8836634e+04   6.8784543e+04   6.8732875e+04   6.8681870e+04   6.8631772e+04   6.8582829e+04   6.8535285e+04   6.8489381e+04   6.8445354e+04   6.8403429e+04   6.8363822e+04   6.8326732e+04   6.8292341e+04   6.8260814e+04   6.8232291e+04   6.8206887e+04   6.8184692e+04   6.8165765e+04   6.8150135e+04   6.8137798e+04   6.8128717e+04   6.8122820e+04   6.8120000e+04   6.8120111e+04   6.8122976e+04   6.8128378e+04   6.8136067e+04   6.8145758e+04   6.8157133e+04   6.8169844e+04   6.8183510e+04   6.8197726e+04   6.8212061e+04   6.8226062e+04   6.8239255e+04   6.8251153e+04   6.8261255e+04   6.8269053e+04   6.8274032e+04   6.8275678e+04   6.8273482e+04   6.8266941e+04   6.8255564e+04   6.8238880e+04   6.8216435e+04   6.8187805e+04   6.8152593e+04   6.8110438e+04   6.8061018e+04   6.8004051e+04   6.7939305e+04   6.7866594e+04   6.7785788e+04   6.7696812e+04   6.7599649e+04   6.7494343e+04   6.7381004e+04   6.7259802e+04   6.7130976e+04   6.6994831e+04   6.6851738e+04   6.6702135e+04   6.6546528e+04   6.6385488e+04   6.6219647e+04   6.6049704e+04   6.5876412e+04   6.5700583e+04   6.5523082e+04   6.5344820e+04   6.5166751e+04   6.4989866e+04   6.4815185e+04   6.4643753e+04   6.4476628e+04   6.4314872e+04   6.4159548e+04   6.4011700e+04   6.3872353e+04   6.3742495e+04   6.3623070e+04   6.3514964e+04   6.3419001e+04   6.3335924e+04   6.3266394e+04   6.3210977e+04   6.3170138e+04   6.3144236e+04   6.3133515e+04   6.3138106e+04   6.3158025e+04   6.3193168e+04   6.3243320e+04   6.3308151e+04   6.3387226e+04   6.3480012e+04   6.3585880e+04   6.3704119e+04   6.3833942e+04   6.3974500e+04   6.4124889e+04   6.4284163e+04   6.4451343e+04   6.4625430e+04   6.4805416e+04   6.4990290e+04   6.5179051e+04   6.5370718e+04   6.5564333e+04   6.5758972e+04   6.5953749e+04   6.6147825e+04   6.6340409e+04   6.6530761e+04   6.6718200e+04   6.6902100e+04   6.7081898e+04   6.7257086e+04   6.7427221e+04   6.7591917e+04   6.7750847e+04   6.7903742e+04   6.8050388e+04   6.8190624e+04   6.8324339e+04   6.8451471e+04   6.8572001e+04   6.8685953e+04
6.8812735e+04   6.8756865e+04   6.8701196e+04   6.8645980e+04   6.8591473e+04   6.8537939e+04   6.8485640e+04   6.8434839e+04   6.8385795e+04   6.8338760e+04   6.8293976e+04   6.8251673e+04   6.8212065e+04   6.8175348e+04   6.8141697e+04   6.8111263e+04   6.8084169e+04   6.8060513e+04   6.8040357e+04   6.8023734e+04   6.8010640e+04   6.8001036e+04   6.7994846e+04   6.7991956e+04   6.7992214e+04   6.7995429e+04   6.8001372e+04   6.8009777e+04   6.8020341e+04   6.8032728e+04   6.8046564e+04   6.8061449e+04   6.8076949e+04   6.8092608e+04   6.8107943e+04   6.8122452e+04   6.8135618e+04   6.8146908e+04   6.8155784e+04   6.8161699e+04   6.8164109e+04   6.8162473e+04   6.8156259e+04   6.8144947e+04   6.8128038e+04   6.8105055e+04   6.8075546e+04   6.8039095e+04   6.7995321e+04   6.7943883e+04   6.7884487e+04   6.7816885e+04   6.7740884e+04   6.7656346e+04   6.7563192e+04   6.7461403e+04   6.7351025e+04   6.7232169e+04   6.7105013e+04   6.6969803e+04   6.6826856e+04   6.6676556e+04   6.6519357e+04   6.6355784e+04   6.6186428e+04   6.6011948e+04   6.5833068e+04   6.5650575e+04   6.5465316e+04   6.5278194e+04   6.5090164e+04   6.4902229e+04   6.4715432e+04   6.4530850e+04   6.4349591e+04   6.4172777e+04   6.4001541e+04   6.3837018e+04   6.3680328e+04   6.3532573e+04   6.3394816e+04   6.3268079e+04   6.3153322e+04   6.3051438e+04   6.2963239e+04   6.2889444e+04   6.2830671e+04   6.2787430e+04   6.2760111e+04   6.2748985e+04   6.2754196e+04   6.2775759e+04   6.2813561e+04   6.2867365e+04   6.2936812e+04   6.3021424e+04   6.3120616e+04   6.3233701e+04   6.3359903e+04   6.3498366e+04   6.3648163e+04   6.3808315e+04   6.3977796e+04   6.4155551e+04   6.4340502e+04   6.4531566e+04   6.4727662e+04   6.4927721e+04   6.5130699e+04   6.5335579e+04   6.5541385e+04   6.5747186e+04   6.5952097e+04   6.6155293e+04   6.6356002e+04   6.6553516e+04   6.6747188e+04   6.6936434e+04   6.7120735e+04   6.7299635e+04   6.7472742e+04   6.7639722e+04   6.7800306e+04   6.7954277e+04   6.8101478e+04   6.8241800e+04   6.8375186e+04   6.8501624e+04   6.8621144e+04
6.8732952e+04   6.8673317e+04   6.8613897e+04   6.8554961e+04   6.8496785e+04   6.8439649e+04   6.8383835e+04   6.8329623e+04   6.8277289e+04   6.8227104e+04   6.8179327e+04   6.8134203e+04   6.8091961e+04   6.8052811e+04   6.8016941e+04   6.7984511e+04   6.7955655e+04   6.7930476e+04   6.7909042e+04   6.7891388e+04   6.7877511e+04   6.7867370e+04   6.7860885e+04   6.7857934e+04   6.7858357e+04   6.7861951e+04   6.7868472e+04   6.7877639e+04   6.7889129e+04   6.7902585e+04   6.7917611e+04   6.7933779e+04   6.7950632e+04   6.7967683e+04   6.7984419e+04   6.8000310e+04   6.8014803e+04   6.8027336e+04   6.8037335e+04   6.8044223e+04   6.8047422e+04   6.8046360e+04   6.8040473e+04   6.8029213e+04   6.8012051e+04   6.7988483e+04   6.7958035e+04   6.7920266e+04   6.7874777e+04   6.7821210e+04   6.7759254e+04   6.7688651e+04   6.7609199e+04   6.7520753e+04   6.7423229e+04   6.7316608e+04   6.7200936e+04   6.7076328e+04   6.6942967e+04   6.6801108e+04   6.6651076e+04   6.6493269e+04   6.6328155e+04   6.6156275e+04   6.5978240e+04   6.5794733e+04   6.5606503e+04   6.5414366e+04   6.5219203e+04   6.5021955e+04   6.4823622e+04   6.4625253e+04   6.4427947e+04   6.4232842e+04   6.4041106e+04   6.3853937e+04   6.3672541e+04   6.3498134e+04   6.3331919e+04   6.3175083e+04   6.3028778e+04   6.2894111e+04   6.2772129e+04   6.2663806e+04   6.2570028e+04   6.2491586e+04   6.2429159e+04   6.2383307e+04   6.2354462e+04   6.2342922e+04   6.2348846e+04   6.2372251e+04   6.2413015e+04   6.2470874e+04   6.2545433e+04   6.2636167e+04   6.2742429e+04   6.2863467e+04   6.2998427e+04   6.3146371e+04   6.3306287e+04   6.3477106e+04   6.3657713e+04   6.3846961e+04   6.4043689e+04   6.4246727e+04   6.4454915e+04   6.4667110e+04   6.4882197e+04   6.5099098e+04   6.5316782e+04   6.5534265e+04   6.5750623e+04   6.5964992e+04   6.6176569e+04   6.6384622e+04   6.6588483e+04   6.6787552e+04   6.6981300e+04   6.7169263e+04   6.7351043e+04   6.7526307e+04   6.7694784e+04   6.7856262e+04   6.8010587e+04   6.8157658e+04   6.8297423e+04   6.8429880e+04   6.8555067e+04
6.8649516e+04   6.8585940e+04   6.8522594e+04   6.8459766e+04   6.8397750e+04   6.8336844e+04   6.8277351e+04   6.8219570e+04   6.8163796e+04   6.8110318e+04   6.8059411e+04   6.8011339e+04   6.7966347e+04   6.7924658e+04   6.7886472e+04   6.7851962e+04   6.7821271e+04   6.7794508e+04   6.7771747e+04   6.7753025e+04   6.7738340e+04   6.7727650e+04   6.7720867e+04   6.7717865e+04   6.7718472e+04   6.7722473e+04   6.7729611e+04   6.7739583e+04   6.7752050e+04   6.7766630e+04   6.7782905e+04   6.7800418e+04   6.7818685e+04   6.7837187e+04   6.7855381e+04   6.7872703e+04   6.7888568e+04   6.7902379e+04   6.7913527e+04   6.7921400e+04   6.7925387e+04   6.7924882e+04   6.7919288e+04   6.7908027e+04   6.7890541e+04   6.7866299e+04   6.7834801e+04   6.7795585e+04   6.7748231e+04   6.7692365e+04   6.7627662e+04   6.7553852e+04   6.7470726e+04   6.7378131e+04   6.7275982e+04   6.7164258e+04   6.7043007e+04   6.6912348e+04   6.6772469e+04   6.6623632e+04   6.6466172e+04   6.6300496e+04   6.6127087e+04   6.5946499e+04   6.5759362e+04   6.5566377e+04   6.5368318e+04   6.5166027e+04   6.4960417e+04   6.4752466e+04   6.4543216e+04   6.4333765e+04   6.4125266e+04   6.3918919e+04   6.3715964e+04   6.3517671e+04   6.3325332e+04   6.3140248e+04   6.2963718e+04   6.2797023e+04   6.2641417e+04   6.2498103e+04   6.2368228e+04   6.2252860e+04   6.2152973e+04   6.2069441e+04   6.2003013e+04   6.1954311e+04   6.1923814e+04   6.1911854e+04   6.1918607e+04   6.1944096e+04   6.1988183e+04   6.2050579e+04   6.2130843e+04   6.2228394e+04   6.2342519e+04   6.2472382e+04   6.2617044e+04   6.2775469e+04   6.2946547e+04   6.3129104e+04   6.3321923e+04   6.3523754e+04   6.3733336e+04   6.3949405e+04   6.4170709e+04   6.4396024e+04   6.4624158e+04   6.4853966e+04   6.5084355e+04   6.5314292e+04   6.5542806e+04   6.5768996e+04   6.5992031e+04   6.6211155e+04   6.6425681e+04   6.6635000e+04   6.6838572e+04   6.7035931e+04   6.7226677e+04   6.7410482e+04   6.7587077e+04   6.7756258e+04   6.7917879e+04   6.8071847e+04   6.8218123e+04   6.8356714e+04   6.8487671e+04
6.8562388e+04   6.8494692e+04   6.8427242e+04   6.8360345e+04   6.8294315e+04   6.8229471e+04   6.8166134e+04   6.8104624e+04   6.8045257e+04   6.7988339e+04   6.7934167e+04   6.7883019e+04   6.7835158e+04   6.7790823e+04   6.7750226e+04   6.7713552e+04   6.7680953e+04   6.7652545e+04   6.7628410e+04   6.7608585e+04   6.7593069e+04   6.7581816e+04   6.7574735e+04   6.7571692e+04   6.7572502e+04   6.7576939e+04   6.7584728e+04   6.7595549e+04   6.7609040e+04   6.7624796e+04   6.7642371e+04   6.7661283e+04   6.7681014e+04   6.7701014e+04   6.7720708e+04   6.7739495e+04   6.7756755e+04   6.7771854e+04   6.7784147e+04   6.7792985e+04   6.7797722e+04   6.7797715e+04   6.7792335e+04   6.7780972e+04   6.7763036e+04   6.7737970e+04   6.7705250e+04   6.7664390e+04   6.7614950e+04   6.7556541e+04   6.7488826e+04   6.7411525e+04   6.7324419e+04   6.7227354e+04   6.7120242e+04   6.7003062e+04   6.6875866e+04   6.6738776e+04   6.6591987e+04   6.6435767e+04   6.6270459e+04   6.6096480e+04   6.5914323e+04   6.5724556e+04   6.5527822e+04   6.5324838e+04   6.5116399e+04   6.4903371e+04   6.4686697e+04   6.4467387e+04   6.4246524e+04   6.4025255e+04   6.3804789e+04   6.3586391e+04   6.3371372e+04   6.3161085e+04   6.2956912e+04   6.2760252e+04   6.2572506e+04   6.2395067e+04   6.2229298e+04   6.2076520e+04   6.1937989e+04   6.1814883e+04   6.1708284e+04   6.1619155e+04   6.1548334e+04   6.1496512e+04   6.1464226e+04   6.1451848e+04   6.1459577e+04   6.1487437e+04   6.1535280e+04   6.1602781e+04   6.1689451e+04   6.1794642e+04   6.1917560e+04   6.2057277e+04   6.2212749e+04   6.2382831e+04   6.2566294e+04   6.2761847e+04   6.2968151e+04   6.3183840e+04   6.3407537e+04   6.3637871e+04   6.3873489e+04   6.4113072e+04   6.4355346e+04   6.4599090e+04   6.4843147e+04   6.5086428e+04   6.5327918e+04   6.5566678e+04   6.5801850e+04   6.6032654e+04   6.6258392e+04   6.6478443e+04   6.6692267e+04   6.6899397e+04   6.7099439e+04   6.7292069e+04   6.7477030e+04   6.7654130e+04   6.7823233e+04   6.7984261e+04   6.8137188e+04   6.8282035e+04   6.8418869e+04
6.8471536e+04   6.8399538e+04   6.8327803e+04   6.8256658e+04   6.8186437e+04   6.8117482e+04   6.8050133e+04   6.7984734e+04   6.7921619e+04   6.7861115e+04   6.7803539e+04   6.7749187e+04   6.7698340e+04   6.7651251e+04   6.7608147e+04   6.7569225e+04   6.7534646e+04   6.7504536e+04   6.7478979e+04   6.7458016e+04   6.7441646e+04   6.7429821e+04   6.7422442e+04   6.7419367e+04   6.7420401e+04   6.7425301e+04   6.7433775e+04   6.7445484e+04   6.7460042e+04   6.7477018e+04   6.7495939e+04   6.7516291e+04   6.7537524e+04   6.7559054e+04   6.7580269e+04   6.7600530e+04   6.7619180e+04   6.7635546e+04   6.7648943e+04   6.7658684e+04   6.7664085e+04   6.7664465e+04   6.7659162e+04   6.7647530e+04   6.7628950e+04   6.7602836e+04   6.7568639e+04   6.7525851e+04   6.7474016e+04   6.7412728e+04   6.7341638e+04   6.7260460e+04   6.7168969e+04   6.7067010e+04   6.6954494e+04   6.6831405e+04   6.6697797e+04   6.6553798e+04   6.6399610e+04   6.6235508e+04   6.6061842e+04   6.5879039e+04   6.5687599e+04   6.5488100e+04   6.5281195e+04   6.5067616e+04   6.4848172e+04   6.4623751e+04   6.4395317e+04   6.4163916e+04   6.3930665e+04   6.3696761e+04   6.3463468e+04   6.3232116e+04   6.3004096e+04   6.2780847e+04   6.2563849e+04   6.2354608e+04   6.2154643e+04   6.1965469e+04   6.1788577e+04   6.1625417e+04   6.1477378e+04   6.1345763e+04   6.1231774e+04   6.1136487e+04   6.1060838e+04   6.1005604e+04   6.0971387e+04   6.0958607e+04   6.0967491e+04   6.0998070e+04   6.1050176e+04   6.1123450e+04   6.1217344e+04   6.1331132e+04   6.1463926e+04   6.1614691e+04   6.1782261e+04   6.1965362e+04   6.2162629e+04   6.2372633e+04   6.2593896e+04   6.2824917e+04   6.3064188e+04   6.3310213e+04   6.3561525e+04   6.3816701e+04   6.4074372e+04   6.4333237e+04   6.4592068e+04   6.4849717e+04   6.5105122e+04   6.5357309e+04   6.5605390e+04   6.5848570e+04   6.6086138e+04   6.6317471e+04   6.6542029e+04   6.6759352e+04   6.6969057e+04   6.7170832e+04   6.7364435e+04   6.7549691e+04   6.7726480e+04   6.7894744e+04   6.8054475e+04   6.8205711e+04   6.8348536e+04
6.8376933e+04   6.8300448e+04   6.8224244e+04   6.8148668e+04   6.8074079e+04   6.8000837e+04   6.7929308e+04   6.7859854e+04   6.7792835e+04   6.7728598e+04   6.7667478e+04   6.7609794e+04   6.7555842e+04   6.7505892e+04   6.7460187e+04   6.7418934e+04   6.7382306e+04   6.7350436e+04   6.7323412e+04   6.7301279e+04   6.7284035e+04   6.7271626e+04   6.7263951e+04   6.7260855e+04   6.7262131e+04   6.7267519e+04   6.7276710e+04   6.7289342e+04   6.7305004e+04   6.7323237e+04   6.7343537e+04   6.7365357e+04   6.7388112e+04   6.7411182e+04   6.7433914e+04   6.7455630e+04   6.7475631e+04   6.7493201e+04   6.7507616e+04   6.7518146e+04   6.7524065e+04   6.7524657e+04   6.7519219e+04   6.7507073e+04   6.7487568e+04   6.7460089e+04   6.7424061e+04   6.7378959e+04   6.7324306e+04   6.7259686e+04   6.7184741e+04   6.7099178e+04   6.7002774e+04   6.6895371e+04   6.6776887e+04   6.6647310e+04   6.6506702e+04   6.6355199e+04   6.6193010e+04   6.6020418e+04   6.5837783e+04   6.5645536e+04   6.5444185e+04   6.5234314e+04   6.5016584e+04   6.4791735e+04   6.4560586e+04   6.4324041e+04   6.4083085e+04   6.3838788e+04   6.3592305e+04   6.3344876e+04   6.3097820e+04   6.2852538e+04   6.2610499e+04   6.2373236e+04   6.2142335e+04   6.1919422e+04   6.1706145e+04   6.1504156e+04   6.1315093e+04   6.1140554e+04   6.0982076e+04   6.0841110e+04   6.0718997e+04   6.0616944e+04   6.0536003e+04   6.0477048e+04   6.0440761e+04   6.0427620e+04   6.0437883e+04   6.0471590e+04   6.0528554e+04   6.0608373e+04   6.0710432e+04   6.0833917e+04   6.0977829e+04   6.1141008e+04   6.1322147e+04   6.1519822e+04   6.1732511e+04   6.1958626e+04   6.2196528e+04   6.2444559e+04   6.2701062e+04   6.2964400e+04   6.3232977e+04   6.3505250e+04   6.3779747e+04   6.4055077e+04   6.4329934e+04   6.4603111e+04   6.4873495e+04   6.5140075e+04   6.5401939e+04   6.5658277e+04   6.5908372e+04   6.6151602e+04   6.6387435e+04   6.6615424e+04   6.6835201e+04   6.7046476e+04   6.7249027e+04   6.7442700e+04   6.7627402e+04   6.7803095e+04   6.7969795e+04   6.8127563e+04   6.8276505e+04
6.8278558e+04   6.8197398e+04   6.8116537e+04   6.8036347e+04   6.7957206e+04   6.7879500e+04   6.7803618e+04   6.7729946e+04   6.7658864e+04   6.7590744e+04   6.7525942e+04   6.7464796e+04   6.7407621e+04   6.7354704e+04   6.7306304e+04   6.7262639e+04   6.7223894e+04   6.7190207e+04   6.7161674e+04   6.7138341e+04   6.7120203e+04   6.7107204e+04   6.7099234e+04   6.7096128e+04   6.7097663e+04   6.7103565e+04   6.7113501e+04   6.7127085e+04   6.7143879e+04   6.7163394e+04   6.7185093e+04   6.7208393e+04   6.7232670e+04   6.7257263e+04   6.7281477e+04   6.7304591e+04   6.7325860e+04   6.7344525e+04   6.7359814e+04   6.7370955e+04   6.7377178e+04   6.7377724e+04   6.7371854e+04   6.7358852e+04   6.7338036e+04   6.7308762e+04   6.7270432e+04   6.7222499e+04   6.7164476e+04   6.7095933e+04   6.7016509e+04   6.6925909e+04   6.6823913e+04   6.6710371e+04   6.6585206e+04   6.6448419e+04   6.6300083e+04   6.6140343e+04   6.5969422e+04   6.5787611e+04   6.5595278e+04   6.5392861e+04   6.5180872e+04   6.4959900e+04   6.4730607e+04   6.4493737e+04   6.4250116e+04   6.4000656e+04   6.3746354e+04   6.3488304e+04   6.3227691e+04   6.2965795e+04   6.2703992e+04   6.2443747e+04   6.2186616e+04   6.1934230e+04   6.1688292e+04   6.1450554e+04   6.1222810e+04   6.1006865e+04   6.0804522e+04   6.0617547e+04   6.0447647e+04   6.0296443e+04   6.0165435e+04   6.0055981e+04   5.9969268e+04   5.9906284e+04   5.9867807e+04   5.9854378e+04   5.9866297e+04   5.9903611e+04   5.9966117e+04   6.0053361e+04   6.0164653e+04   6.0299075e+04   6.0455504e+04   6.0632632e+04   6.0828991e+04   6.1042985e+04   6.1272911e+04   6.1516994e+04   6.1773414e+04   6.2040334e+04   6.2315925e+04   6.2598389e+04   6.2885983e+04   6.3177033e+04   6.3469950e+04   6.3763243e+04   6.4055525e+04   6.4345520e+04   6.4632065e+04   6.4914115e+04   6.5190733e+04   6.5461098e+04   6.5724493e+04   6.5980302e+04   6.6228009e+04   6.6467185e+04   6.6697488e+04   6.6918653e+04   6.7130487e+04   6.7332867e+04   6.7525728e+04   6.7709062e+04   6.7882913e+04   6.8047370e+04   6.8202565e+04
6.8176391e+04   6.8090365e+04   6.8004659e+04   6.7919665e+04   6.7835788e+04   6.7753439e+04   6.7673029e+04   6.7594970e+04   6.7519667e+04   6.7447514e+04   6.7378889e+04   6.7314152e+04   6.7253637e+04   6.7197649e+04   6.7146460e+04   6.7100305e+04   6.7059376e+04   6.7023821e+04   6.6993738e+04   6.6969176e+04   6.6950128e+04   6.6936533e+04   6.6928271e+04   6.6925165e+04   6.6926978e+04   6.6933414e+04   6.6944117e+04   6.6958676e+04   6.6976622e+04   6.6997432e+04   6.7020533e+04   6.7045303e+04   6.7071075e+04   6.7097144e+04   6.7122769e+04   6.7147181e+04   6.7169586e+04   6.7189175e+04   6.7205130e+04   6.7216628e+04   6.7222854e+04   6.7223006e+04   6.7216302e+04   6.7201990e+04   6.7179354e+04   6.7147724e+04   6.7106479e+04   6.7055054e+04   6.6992950e+04   6.6919733e+04   6.6835040e+04   6.6738583e+04   6.6630148e+04   6.6509598e+04   6.6376873e+04   6.6231989e+04   6.6075035e+04   6.5906175e+04   6.5725645e+04   6.5533751e+04   6.5330867e+04   6.5117441e+04   6.4893988e+04   6.4661095e+04   6.4419425e+04   6.4169720e+04   6.3912805e+04   6.3649591e+04   6.3381086e+04   6.3108396e+04   6.2832730e+04   6.2555405e+04   6.2277849e+04   6.2001595e+04   6.1728282e+04   6.1459648e+04   6.1197516e+04   6.0943782e+04   6.0700394e+04   6.0469331e+04   6.0252577e+04   6.0052089e+04   5.9869767e+04   5.9707422e+04   5.9566740e+04   5.9449251e+04   5.9356295e+04   5.9288996e+04   5.9248239e+04   5.9234643e+04   5.9248554e+04   5.9290033e+04   5.9358855e+04   5.9454512e+04   5.9576225e+04   5.9722960e+04   5.9893450e+04   6.0086220e+04   6.0299618e+04   6.0531849e+04   6.0781003e+04   6.1045094e+04   6.1322093e+04   6.1609960e+04   6.1906670e+04   6.2210246e+04   6.2518777e+04   6.2830442e+04   6.3143522e+04   6.3456417e+04   6.3767650e+04   6.4075873e+04   6.4379873e+04   6.4678566e+04   6.4970998e+04   6.5256338e+04   6.5533874e+04   6.5803007e+04   6.6063238e+04   6.6314170e+04   6.6555491e+04   6.6786971e+04   6.7008454e+04   6.7219854e+04   6.7421142e+04   6.7612347e+04   6.7793547e+04   6.7964865e+04   6.8126461e+04
6.8070419e+04   6.7979332e+04   6.7888586e+04   6.7798598e+04   6.7709798e+04   6.7622621e+04   6.7537507e+04   6.7454893e+04   6.7375207e+04   6.7298869e+04   6.7226281e+04   6.7157824e+04   6.7093852e+04   6.7034689e+04   6.6980622e+04   6.6931899e+04   6.6888723e+04   6.6851249e+04   6.6819579e+04   6.6793763e+04   6.6773791e+04   6.6759596e+04   6.6751047e+04   6.6747953e+04   6.6750059e+04   6.6757046e+04   6.6768535e+04   6.6784084e+04   6.6803189e+04   6.6825293e+04   6.6849780e+04   6.6875985e+04   6.6903196e+04   6.6930658e+04   6.6957580e+04   6.6983139e+04   6.7006488e+04   6.7026766e+04   6.7043099e+04   6.7054614e+04   6.7060446e+04   6.7059745e+04   6.7051687e+04   6.7035482e+04   6.7010380e+04   6.6975682e+04   6.6930749e+04   6.6875001e+04   6.6807931e+04   6.6729106e+04   6.6638168e+04   6.6534840e+04   6.6418927e+04   6.6290312e+04   6.6148958e+04   6.5994906e+04   6.5828271e+04   6.5649240e+04   6.5458070e+04   6.5255084e+04   6.5040670e+04   6.4815283e+04   6.4579440e+04   6.4333727e+04   6.4078803e+04   6.3815399e+04   6.3544333e+04   6.3266510e+04   6.2982936e+04   6.2694723e+04   6.2403097e+04   6.2109404e+04   6.1815119e+04   6.1521839e+04   6.1231292e+04   6.0945319e+04   6.0665876e+04   6.0395008e+04   6.0134834e+04   5.9887523e+04   5.9655258e+04   5.9440210e+04   5.9244495e+04   5.9070138e+04   5.8919035e+04   5.8792910e+04   5.8693282e+04   5.8621428e+04   5.8578354e+04   5.8564773e+04   5.8581083e+04   5.8627364e+04   5.8703365e+04   5.8808520e+04   5.8941952e+04   5.9102493e+04   5.9288714e+04   5.9498952e+04   5.9731346e+04   5.9983875e+04   6.0254394e+04   6.0540681e+04   6.0840468e+04   6.1151486e+04   6.1471491e+04   6.1798302e+04   6.2129823e+04   6.2464068e+04   6.2799175e+04   6.3133422e+04   6.3465236e+04   6.3793195e+04   6.4116028e+04   6.4432618e+04   6.4741993e+04   6.5043320e+04   6.5335896e+04   6.5619144e+04   6.5892597e+04   6.6155890e+04   6.6408754e+04   6.6651003e+04   6.6882527e+04   6.7103281e+04   6.7313285e+04   6.7512609e+04   6.7701372e+04   6.7879734e+04   6.8047894e+04
6.7960627e+04   6.7864280e+04   6.7768296e+04   6.7673119e+04   6.7579204e+04   6.7487014e+04   6.7397017e+04   6.7309674e+04   6.7225444e+04   6.7144769e+04   6.7068077e+04   6.6995771e+04   6.6928227e+04   6.6865787e+04   6.6808754e+04   6.6757389e+04   6.6711905e+04   6.6672465e+04   6.6639175e+04   6.6612084e+04   6.6591178e+04   6.6576381e+04   6.6567551e+04   6.6564480e+04   6.6566893e+04   6.6574448e+04   6.6586734e+04   6.6603276e+04   6.6623536e+04   6.6646914e+04   6.6672749e+04   6.6700328e+04   6.6728888e+04   6.6757619e+04   6.6785674e+04   6.6812173e+04   6.6836209e+04   6.6856862e+04   6.6873201e+04   6.6884296e+04   6.6889228e+04   6.6887097e+04   6.6877033e+04   6.6858206e+04   6.6829834e+04   6.6791192e+04   6.6741621e+04   6.6680532e+04   6.6607417e+04   6.6521848e+04   6.6423482e+04   6.6312065e+04   6.6187425e+04   6.6049480e+04   6.5898226e+04   6.5733740e+04   6.5556173e+04   6.5365745e+04   6.5162742e+04   6.4947512e+04   6.4720461e+04   6.4482052e+04   6.4232808e+04   6.3973311e+04   6.3704208e+04   6.3426218e+04   6.3140143e+04   6.2846871e+04   6.2547398e+04   6.2242830e+04   6.1934401e+04   6.1623478e+04   6.1311574e+04   6.1000349e+04   6.0691612e+04   6.0387316e+04   6.0089547e+04   5.9800513e+04   5.9522515e+04   5.9257924e+04   5.9009147e+04   5.8778585e+04   5.8568594e+04   5.8381441e+04   5.8219252e+04   5.8083973e+04   5.7977321e+04   5.7900746e+04   5.7855396e+04   5.7842087e+04   5.7861281e+04   5.7913078e+04   5.7997205e+04   5.8113028e+04   5.8259561e+04   5.8435491e+04   5.8639207e+04   5.8868834e+04   5.9122276e+04   5.9397261e+04   5.9691381e+04   6.0002148e+04   6.0327029e+04   6.0663496e+04   6.1009063e+04   6.1361322e+04   6.1717971e+04   6.2076840e+04   6.2435912e+04   6.2793333e+04   6.3147425e+04   6.3496684e+04   6.3839785e+04   6.4175576e+04   6.4503069e+04   6.4821433e+04   6.5129985e+04   6.5428173e+04   6.5715570e+04   6.5991856e+04   6.6256812e+04   6.6510304e+04   6.6752276e+04   6.6982739e+04   6.7201762e+04   6.7409467e+04   6.7606019e+04   6.7791624e+04   6.7966522e+04
6.7847000e+04   6.7745190e+04   6.7643766e+04   6.7543199e+04   6.7443974e+04   6.7346582e+04   6.7251517e+04   6.7159273e+04   6.7070333e+04   6.6985168e+04   6.6904231e+04   6.6827948e+04   6.6756718e+04   6.6690900e+04   6.6630815e+04   6.6576738e+04   6.6528891e+04   6.6487443e+04   6.6452504e+04   6.6424120e+04   6.6402272e+04   6.6386875e+04   6.6377772e+04   6.6374737e+04   6.6377470e+04   6.6385602e+04   6.6398690e+04   6.6416222e+04   6.6437617e+04   6.6462230e+04   6.6489350e+04   6.6518211e+04   6.6547992e+04   6.6577824e+04   6.6606796e+04   6.6633964e+04   6.6658358e+04   6.6678991e+04   6.6694869e+04   6.6705001e+04   6.6708409e+04   6.6704139e+04   6.6691275e+04   6.6668943e+04   6.6636330e+04   6.6592686e+04   6.6537337e+04   6.6469691e+04   6.6389243e+04   6.6295581e+04   6.6188388e+04   6.6067439e+04   6.5932605e+04   6.5783846e+04   6.5621210e+04   6.5444821e+04   6.5254880e+04   6.5051653e+04   6.4835467e+04   6.4606701e+04   6.4365786e+04   6.4113203e+04   6.3849477e+04   6.3575186e+04   6.3290965e+04   6.2997512e+04   6.2695603e+04   6.2386104e+04   6.2069985e+04   6.1748336e+04   6.1422386e+04   6.1093513e+04   6.0763259e+04   6.0433336e+04   6.0105633e+04   5.9782209e+04   5.9465288e+04   5.9157242e+04   5.8860566e+04   5.8577848e+04   5.8311731e+04   5.8064870e+04   5.7839883e+04   5.7639298e+04   5.7465500e+04   5.7320677e+04   5.7206769e+04   5.7125420e+04   5.7077934e+04   5.7065246e+04   5.7087893e+04   5.7145996e+04   5.7239263e+04   5.7366985e+04   5.7528060e+04   5.7721013e+04   5.7944032e+04   5.8195010e+04   5.8471592e+04   5.8771226e+04   5.9091216e+04   5.9428776e+04   5.9781083e+04   6.0145323e+04   6.0518742e+04   6.0898682e+04   6.1282614e+04   6.1668171e+04   6.2053162e+04   6.2435593e+04   6.2813670e+04   6.3185808e+04   6.3550622e+04   6.3906926e+04   6.4253720e+04   6.4590182e+04   6.4915651e+04   6.5229612e+04   6.5531684e+04   6.5821603e+04   6.6099207e+04   6.6364424e+04   6.6617262e+04   6.6857793e+04   6.7086148e+04   6.7302505e+04   6.7507084e+04   6.7700141e+04   6.7881962e+04
6.7729521e+04   6.7622039e+04   6.7514967e+04   6.7408806e+04   6.7304070e+04   6.7201281e+04   6.7100964e+04   6.7003640e+04   6.6909824e+04   6.6820014e+04   6.6734690e+04   6.6654302e+04   6.6579272e+04   6.6509979e+04   6.6446761e+04   6.6389904e+04   6.6339643e+04   6.6296150e+04   6.6259536e+04   6.6229847e+04   6.6207055e+04   6.6191063e+04   6.6181698e+04   6.6178711e+04   6.6181776e+04   6.6190492e+04   6.6204380e+04   6.6222885e+04   6.6245381e+04   6.6271170e+04   6.6299487e+04   6.6329505e+04   6.6360340e+04   6.6391054e+04   6.6420670e+04   6.6448171e+04   6.6472516e+04   6.6492646e+04   6.6507498e+04   6.6516011e+04   6.6517147e+04   6.6509893e+04   6.6493283e+04   6.6466401e+04   6.6428402e+04   6.6378513e+04   6.6316050e+04   6.6240424e+04   6.6151142e+04   6.6047819e+04   6.5930173e+04   6.5798028e+04   6.5651308e+04   6.5490037e+04   6.5314325e+04   6.5124366e+04   6.4920424e+04   6.4702827e+04   6.4471956e+04   6.4228236e+04   6.3972134e+04   6.3704149e+04   6.3424817e+04   6.3134712e+04   6.2834451e+04   6.2524708e+04   6.2206225e+04   6.1879832e+04   6.1546461e+04   6.1207175e+04   6.0863181e+04   6.0515853e+04   6.0166752e+04   5.9817630e+04   5.9470447e+04   5.9127365e+04   5.8790742e+04   5.8463118e+04   5.8147186e+04   5.7845763e+04   5.7561742e+04   5.7298049e+04   5.7057581e+04   5.6843153e+04   5.6657428e+04   5.6502860e+04   5.6381631e+04   5.6295600e+04   5.6246247e+04   5.6234636e+04   5.6261388e+04   5.6326656e+04   5.6430124e+04   5.6571009e+04   5.6748080e+04   5.6959688e+04   5.7203806e+04   5.7478073e+04   5.7779851e+04   5.8106285e+04   5.8454362e+04   5.8820975e+04   5.9202979e+04   5.9597254e+04   6.0000752e+04   6.0410541e+04   6.0823851e+04   6.1238096e+04   6.1650901e+04   6.2060121e+04   6.2463841e+04   6.2860386e+04   6.3248313e+04   6.3626402e+04   6.3993646e+04   6.4349234e+04   6.4692535e+04   6.5023079e+04   6.5340538e+04   6.5644713e+04   6.5935509e+04   6.6212926e+04   6.6477042e+04   6.6728000e+04   6.6966000e+04   6.7191283e+04   6.7404131e+04   6.7604856e+04   6.7793793e+04
6.7608168e+04   6.7494798e+04   6.7381865e+04   6.7269899e+04   6.7159446e+04   6.7051060e+04   6.6945299e+04   6.6842715e+04   6.6743853e+04   6.6649241e+04   6.6559388e+04   6.6474769e+04   6.6395827e+04   6.6322964e+04   6.6256534e+04   6.6196836e+04   6.6144112e+04   6.6098542e+04   6.6060237e+04   6.6029235e+04   6.6005502e+04   6.5988925e+04   6.5979311e+04   6.5976386e+04   6.5979795e+04   6.5989098e+04   6.6003776e+04   6.6023228e+04   6.6046774e+04   6.6073659e+04   6.6103057e+04   6.6134072e+04   6.6165751e+04   6.6197082e+04   6.6227009e+04   6.6254438e+04   6.6278248e+04   6.6297301e+04   6.6310458e+04   6.6316585e+04   6.6314574e+04   6.6303352e+04   6.6281900e+04   6.6249260e+04   6.6204554e+04   6.6146992e+04   6.6075885e+04   6.5990651e+04   6.5890825e+04   6.5776057e+04   6.5646118e+04   6.5500895e+04   6.5340386e+04   6.5164693e+04   6.4974015e+04   6.4768631e+04   6.4548892e+04   6.4315205e+04   6.4068023e+04   6.3807831e+04   6.3535143e+04   6.3250488e+04   6.2954418e+04   6.2647504e+04   6.2330345e+04   6.2003584e+04   6.1667921e+04   6.1324136e+04   6.0973115e+04   6.0615871e+04   6.0253577e+04   5.9887586e+04   5.9519457e+04   5.9150974e+04   5.8784152e+04   5.8421246e+04   5.8064744e+04   5.7717349e+04   5.7381958e+04   5.7061617e+04   5.6759484e+04   5.6478765e+04   5.6222655e+04   5.5994270e+04   5.5796572e+04   5.5632301e+04   5.5503903e+04   5.5413466e+04   5.5362663e+04   5.5352703e+04   5.5384299e+04   5.5457641e+04   5.5572394e+04   5.5727695e+04   5.5922181e+04   5.6154018e+04   5.6420946e+04   5.6720334e+04   5.7049244e+04   5.7404492e+04   5.7782726e+04   5.8180494e+04   5.8594307e+04   5.9020714e+04   5.9456351e+04   5.9897998e+04   6.0342619e+04   6.0787400e+04   6.1229768e+04   6.1667417e+04   6.2098307e+04   6.2520669e+04   6.2932999e+04   6.3334047e+04   6.3722799e+04   6.4098463e+04   6.4460442e+04   6.4808318e+04   6.5141827e+04   6.5460839e+04   6.5765337e+04   6.6055400e+04   6.6331186e+04   6.6592915e+04   6.6840862e+04   6.7075342e+04   6.7296700e+04   6.7505310e+04   6.7701564e+04
6.7482912e+04   6.7363431e+04   6.7244414e+04   6.7126425e+04   6.7010043e+04   6.6895855e+04   6.6784453e+04   6.6676423e+04   6.6572342e+04   6.6472771e+04   6.6378244e+04   6.6289267e+04   6.6206305e+04   6.6129779e+04   6.6060062e+04   6.5997465e+04   6.5942239e+04   6.5894566e+04   6.5854556e+04   6.5822242e+04   6.5797577e+04   6.5780430e+04   6.5770584e+04   6.5767738e+04   6.5771500e+04   6.5781390e+04   6.5796842e+04   6.5817202e+04   6.5841732e+04   6.5869612e+04   6.5899946e+04   6.5931766e+04   6.5964037e+04   6.5995668e+04   6.6025515e+04   6.6052398e+04   6.6075109e+04   6.6092424e+04   6.6103117e+04   6.6105978e+04   6.6099824e+04   6.6083518e+04   6.6055983e+04   6.6016221e+04   6.5963322e+04   6.5896483e+04   6.5815017e+04   6.5718360e+04   6.5606084e+04   6.5477890e+04   6.5333619e+04   6.5173240e+04   6.4996845e+04   6.4804641e+04   6.4596934e+04   6.4374114e+04   6.4136642e+04   6.3885026e+04   6.3619812e+04   6.3341565e+04   6.3050859e+04   6.2748266e+04   6.2434361e+04   6.2109716e+04   6.1774912e+04   6.1430557e+04   6.1077299e+04   6.0715859e+04   6.0347056e+04   5.9971842e+04   5.9591332e+04   5.9206841e+04   5.8819908e+04   5.8432324e+04   5.8046147e+04   5.7663710e+04   5.7287618e+04   5.6920731e+04   5.6566143e+04   5.6227134e+04   5.5907125e+04   5.5609612e+04   5.5338099e+04   5.5096016e+04   5.4886638e+04   5.4713008e+04   5.4577850e+04   5.4483500e+04   5.4431836e+04   5.4424225e+04   5.4461482e+04   5.4543841e+04   5.4670949e+04   5.4841866e+04   5.5055091e+04   5.5308597e+04   5.5599882e+04   5.5926032e+04   5.6283787e+04   5.6669624e+04   5.7079830e+04   5.7510588e+04   5.7958047e+04   5.8418405e+04   5.8887967e+04   5.9363204e+04   5.9840805e+04   6.0317712e+04   6.0791149e+04   6.1258638e+04   6.1718009e+04   6.2167398e+04   6.2605241e+04   6.3030255e+04   6.3441428e+04   6.3837985e+04   6.4219373e+04   6.4585231e+04   6.4935365e+04   6.5269724e+04   6.5588374e+04   6.5891481e+04   6.6179289e+04   6.6452104e+04   6.6710280e+04   6.6954210e+04   6.7184310e+04   6.7401020e+04   6.7604791e+04
6.7353712e+04   6.7227888e+04   6.7102558e+04   6.6978319e+04   6.6855787e+04   6.6735584e+04   6.6618339e+04   6.6504672e+04   6.6395196e+04   6.6290503e+04   6.6191159e+04   6.6097696e+04   6.6010605e+04   6.5930328e+04   6.5857253e+04   6.5791705e+04   6.5733942e+04   6.5684148e+04   6.5642430e+04   6.5608810e+04   6.5583228e+04   6.5565532e+04   6.5555478e+04   6.5552729e+04   6.5556855e+04   6.5567329e+04   6.5583533e+04   6.5604752e+04   6.5630183e+04   6.5658936e+04   6.5690037e+04   6.5722434e+04   6.5755006e+04   6.5786570e+04   6.5815890e+04   6.5841688e+04   6.5862661e+04   6.5877491e+04   6.5884860e+04   6.5883473e+04   6.5872067e+04   6.5849436e+04   6.5814448e+04   6.5766060e+04   6.5703336e+04   6.5625463e+04   6.5531763e+04   6.5421705e+04   6.5294906e+04   6.5151140e+04   6.4990333e+04   6.4812560e+04   6.4618031e+04   6.4407081e+04   6.4180151e+04   6.3937771e+04   6.3680535e+04   6.3409081e+04   6.3124069e+04   6.2826165e+04   6.2516023e+04   6.2194274e+04   6.1861522e+04   6.1518350e+04   6.1165321e+04   6.0803001e+04   6.0431984e+04   6.0052915e+04   5.9666534e+04   5.9273709e+04   5.8875479e+04   5.8473096e+04   5.8068057e+04   5.7662137e+04   5.7257414e+04   5.6856279e+04   5.6461437e+04   5.6075893e+04   5.5702925e+04   5.5346039e+04   5.5008919e+04   5.4695351e+04   5.4409148e+04   5.4154063e+04   5.3933696e+04   5.3751400e+04   5.3610191e+04   5.3512663e+04   5.3460912e+04   5.3456475e+04   5.3500277e+04   5.3592603e+04   5.3733087e+04   5.3920712e+04   5.4153840e+04   5.4430247e+04   5.4747184e+04   5.5101443e+04   5.5489437e+04   5.5907287e+04   5.6350909e+04   5.6816105e+04   5.7298653e+04   5.7794383e+04   5.8299257e+04   5.8809428e+04   5.9321299e+04   5.9831561e+04   6.0337224e+04   6.0835638e+04   6.1324498e+04   6.1801844e+04   6.2266050e+04   6.2715807e+04   6.3150099e+04   6.3568182e+04   6.3969545e+04   6.4353893e+04   6.4721105e+04   6.5071215e+04   6.5404380e+04   6.5720856e+04   6.6020980e+04   6.6305149e+04   6.6573801e+04   6.6827410e+04   6.7066469e+04   6.7291484e+04   6.7502969e+04
6.7220520e+04   6.7088110e+04   6.6956224e+04   6.6825499e+04   6.6696587e+04   6.6570148e+04   6.6446849e+04   6.6327349e+04   6.6212296e+04   6.6102316e+04   6.5998008e+04   6.5899932e+04   6.5808606e+04   6.5724491e+04   6.5647993e+04   6.5579448e+04   6.5519120e+04   6.5467194e+04   6.5423771e+04   6.5388862e+04   6.5362386e+04   6.5344169e+04   6.5333933e+04   6.5331304e+04   6.5335806e+04   6.5346860e+04   6.5363787e+04   6.5385808e+04   6.5412045e+04   6.5441529e+04   6.5473200e+04   6.5505916e+04   6.5538459e+04   6.5569546e+04   6.5597838e+04   6.5621954e+04   6.5640484e+04   6.5652008e+04   6.5655111e+04   6.5648404e+04   6.5630541e+04   6.5600245e+04   6.5556324e+04   6.5497694e+04   6.5423394e+04   6.5332609e+04   6.5224680e+04   6.5099117e+04   6.4955602e+04   6.4793998e+04   6.4614338e+04   6.4416826e+04   6.4201815e+04   6.3969799e+04   6.3721382e+04   6.3457262e+04   6.3178196e+04   6.2884980e+04   6.2578418e+04   6.2259298e+04   6.1928376e+04   6.1586357e+04   6.1233892e+04   6.0871577e+04   6.0499963e+04   6.0119573e+04   5.9730936e+04   5.9334612e+04   5.8931244e+04   5.8521597e+04   5.8106612e+04   5.7687449e+04   5.7265539e+04   5.6842614e+04   5.6420744e+04   5.6002354e+04   5.5590224e+04   5.5187482e+04   5.4797572e+04   5.4424214e+04   5.4071340e+04   5.3743021e+04   5.3443376e+04   5.3176479e+04   5.2946254e+04   5.2756372e+04   5.2610146e+04   5.2510436e+04   5.2459566e+04   5.2459247e+04   5.2510525e+04   5.2613743e+04   5.2768528e+04   5.2973791e+04   5.3227758e+04   5.3528012e+04   5.3871555e+04   5.4254884e+04   5.4674082e+04   5.5124908e+04   5.5602903e+04   5.6103486e+04   5.6622049e+04   5.7154056e+04   5.7695117e+04   5.8241062e+04   5.8788002e+04   5.9332375e+04   5.9870974e+04   6.0400976e+04   6.0919938e+04   6.1425806e+04   6.1916894e+04   6.2391864e+04   6.2849708e+04   6.3289705e+04   6.3711398e+04   6.4114555e+04   6.4499139e+04   6.4865268e+04   6.5213194e+04   6.5543271e+04   6.5855929e+04   6.6151657e+04   6.6430985e+04   6.6694468e+04   6.6942676e+04   6.7176185e+04   6.7395572e+04
6.7083268e+04   6.6944017e+04   6.6805324e+04   6.6667864e+04   6.6532330e+04   6.6399424e+04   6.6269852e+04   6.6144314e+04   6.6023495e+04   6.5908060e+04   6.5798639e+04   6.5695823e+04   6.5600155e+04   6.5512120e+04   6.5432138e+04   6.5360556e+04   6.5297643e+04   6.5243583e+04   6.5198467e+04   6.5162292e+04   6.5134956e+04   6.5116253e+04   6.5105870e+04   6.5103389e+04   6.5108281e+04   6.5119909e+04   6.5137527e+04   6.5160281e+04   6.5187216e+04   6.5217271e+04   6.5249294e+04   6.5282042e+04   6.5314193e+04   6.5344354e+04   6.5371073e+04   6.5392858e+04   6.5408184e+04   6.5415522e+04   6.5413352e+04   6.5400185e+04   6.5374590e+04   6.5335212e+04   6.5280803e+04   6.5210236e+04   6.5122534e+04   6.5016885e+04   6.4892658e+04   6.4749419e+04   6.4586932e+04   6.4405166e+04   6.4204288e+04   6.3984654e+04   6.3746789e+04   6.3491374e+04   6.3219208e+04   6.2931187e+04   6.2628267e+04   6.2311428e+04   6.1981648e+04   6.1639865e+04   6.1286959e+04   6.0923729e+04   6.0550887e+04   6.0169053e+04   5.9778769e+04   5.9380517e+04   5.8974751e+04   5.8561938e+04   5.8142607e+04   5.7717399e+04   5.7287130e+04   5.6852847e+04   5.6415878e+04   5.5977886e+04   5.5540902e+04   5.5107349e+04   5.4680055e+04   5.4262242e+04   5.3857496e+04   5.3469725e+04   5.3103092e+04   5.2761933e+04   5.2450662e+04   5.2173665e+04   5.1935185e+04   5.1739205e+04   5.1589335e+04   5.1488706e+04   5.1439870e+04   5.1444720e+04   5.1504428e+04   5.1619403e+04   5.1789271e+04   5.2012881e+04   5.2288331e+04   5.2613015e+04   5.2983692e+04   5.3396573e+04   5.3847412e+04   5.4331615e+04   5.4844347e+04   5.5380647e+04   5.5935530e+04   5.6504089e+04   5.7081587e+04   5.7663533e+04   5.8245749e+04   5.8824418e+04   5.9396123e+04   5.9957863e+04   6.0507066e+04   6.1041581e+04   6.1559664e+04   6.2059956e+04   6.2541451e+04   6.3003460e+04   6.3445577e+04   6.3867641e+04   6.4269693e+04   6.4651944e+04   6.5014740e+04   6.5358531e+04   6.5683845e+04   6.5991264e+04   6.6281406e+04   6.6554912e+04   6.6812426e+04   6.7054596e+04   6.7282061e+04
6.6941875e+04   6.6795513e+04   6.6649745e+04   6.6505289e+04   6.6362879e+04   6.6223263e+04   6.6087188e+04   6.5955398e+04   6.5828620e+04   6.5707554e+04   6.5592867e+04   6.5485183e+04   6.5385070e+04   6.5293034e+04   6.5209511e+04   6.5134859e+04   6.5069349e+04   6.5013161e+04   6.4966375e+04   6.4928969e+04   6.4900814e+04   6.4881669e+04   6.4871181e+04   6.4868880e+04   6.4874179e+04   6.4886375e+04   6.4904648e+04   6.4928064e+04   6.4955574e+04   6.4986026e+04   6.5018163e+04   6.5050633e+04   6.5081999e+04   6.5110752e+04   6.5135319e+04   6.5154084e+04   6.5165405e+04   6.5167634e+04   6.5159139e+04   6.5138330e+04   6.5103683e+04   6.5053769e+04   6.4987280e+04   6.4903053e+04   6.4800097e+04   6.4677612e+04   6.4535010e+04   6.4371924e+04   6.4188218e+04   6.3983990e+04   6.3759562e+04   6.3515469e+04   6.3252440e+04   6.2971368e+04   6.2673284e+04   6.2359314e+04   6.2030642e+04   6.1688468e+04   6.1333970e+04   6.0968267e+04   6.0592387e+04   6.0207244e+04   5.9813626e+04   5.9412191e+04   5.9003477e+04   5.8587925e+04   5.8165913e+04   5.7737800e+04   5.7303986e+04   5.6864971e+04   5.6421419e+04   5.5974233e+04   5.5524612e+04   5.5074110e+04   5.4624684e+04   5.4178722e+04   5.3739064e+04   5.3308987e+04   5.2892187e+04   5.2492729e+04   5.2114977e+04   5.1763507e+04   5.1443006e+04   5.1158151e+04   5.0913489e+04   5.0713306e+04   5.0561502e+04   5.0461470e+04   5.0415991e+04   5.0427142e+04   5.0496226e+04   5.0623724e+04   5.0809272e+04   5.1051665e+04   5.1348884e+04   5.1698148e+04   5.2095990e+04   5.2538343e+04   5.3020649e+04   5.3537973e+04   5.4085122e+04   5.4656764e+04   5.5247549e+04   5.5852214e+04   5.6465683e+04   5.7083156e+04   5.7700171e+04   5.8312669e+04   5.8917024e+04   5.9510070e+04   6.0089104e+04   6.0651886e+04   6.1196619e+04   6.1721919e+04   6.2226788e+04   6.2710571e+04   6.3172912e+04   6.3613720e+04   6.4033115e+04   6.4431398e+04   6.4809009e+04   6.5166494e+04   6.5504474e+04   6.5823625e+04   6.6124652e+04   6.6408275e+04   6.6675214e+04   6.6926185e+04   6.7161887e+04
6.6796239e+04   6.6642481e+04   6.6489355e+04   6.6337625e+04   6.6188071e+04   6.6041487e+04   6.5898668e+04   6.5760403e+04   6.5627460e+04   6.5500583e+04   6.5380476e+04   6.5267792e+04   6.5163129e+04   6.5067015e+04   6.4979900e+04   6.4902152e+04   6.4834041e+04   6.4775740e+04   6.4727316e+04   6.4688724e+04   6.4659802e+04   6.4640270e+04   6.4629726e+04   6.4627643e+04   6.4633370e+04   6.4646129e+04   6.4665019e+04   6.4689015e+04   6.4716973e+04   6.4747634e+04   6.4779629e+04   6.4811490e+04   6.4841659e+04   6.4868497e+04   6.4890305e+04   6.4905339e+04   6.4911828e+04   6.4908002e+04   6.4892113e+04   6.4862465e+04   6.4817441e+04   6.4755538e+04   6.4675389e+04   6.4575800e+04   6.4455773e+04   6.4314531e+04   6.4151537e+04   6.3966512e+04   6.3759437e+04   6.3530559e+04   6.3280378e+04   6.3009637e+04   6.2719293e+04   6.2410489e+04   6.2084513e+04   6.1742755e+04   6.1386660e+04   6.1017680e+04   6.0637224e+04   6.0246617e+04   5.9847063e+04   5.9439611e+04   5.9025145e+04   5.8604370e+04   5.8177831e+04   5.7745930e+04   5.7308962e+04   5.6867175e+04   5.6420824e+04   5.5970243e+04   5.5515927e+04   5.5058602e+04   5.4599304e+04   5.4139445e+04   5.3680867e+04   5.3225886e+04   5.2777306e+04   5.2338424e+04   5.1913003e+04   5.1505223e+04   5.1119613e+04   5.0760954e+04   5.0434172e+04   5.0144209e+04   4.9895890e+04   4.9693783e+04   4.9542061e+04   4.9444369e+04   4.9403712e+04   4.9422347e+04   4.9501710e+04   4.9642360e+04   4.9843952e+04   5.0105240e+04   5.0424107e+04   5.0797616e+04   5.1222091e+04   5.1693213e+04   5.2206136e+04   5.2755606e+04   5.3336095e+04   5.3941928e+04   5.4567409e+04   5.5206940e+04   5.5855131e+04   5.6506885e+04   5.7157480e+04   5.7802623e+04   5.8438494e+04   5.9061771e+04   5.9669631e+04   6.0259750e+04   6.0830279e+04   6.1379817e+04   6.1907373e+04   6.2412323e+04   6.2894364e+04   6.3353468e+04   6.3789836e+04   6.4203853e+04   6.4596048e+04   6.4967058e+04   6.5317595e+04   6.5648421e+04   6.5960323e+04   6.6254098e+04   6.6530537e+04   6.6790417e+04   6.7034494e+04
6.6646238e+04   6.6484780e+04   6.6323996e+04   6.6164696e+04   6.6007713e+04   6.5853889e+04   6.5704070e+04   6.5559093e+04   6.5419774e+04   6.5286897e+04   6.5161207e+04   6.5043391e+04   6.4934074e+04   6.4833807e+04   6.4743054e+04   6.4662189e+04   6.4591481e+04   6.4531094e+04   6.4481075e+04   6.4441351e+04   6.4411724e+04   6.4391868e+04   6.4381325e+04   6.4379506e+04   6.4385685e+04   6.4399004e+04   6.4418471e+04   6.4442963e+04   6.4471230e+04   6.4501901e+04   6.4533486e+04   6.4564394e+04   6.4592934e+04   6.4617336e+04   6.4635765e+04   6.4646343e+04   6.4647168e+04   6.4636341e+04   6.4611997e+04   6.4572332e+04   6.4515639e+04   6.4440338e+04   6.4345013e+04   6.4228442e+04   6.4089628e+04   6.3927829e+04   6.3742574e+04   6.3533684e+04   6.3301278e+04   6.3045771e+04   6.2767868e+04   6.2468542e+04   6.2149009e+04   6.1810686e+04   6.1455150e+04   6.1084086e+04   6.0699230e+04   6.0302315e+04   5.9895011e+04   5.9478876e+04   5.9055313e+04   5.8625528e+04   5.8190518e+04   5.7751051e+04   5.7307685e+04   5.6860786e+04   5.6410569e+04   5.5957160e+04   5.5500656e+04   5.5041213e+04   5.4579126e+04   5.4114922e+04   5.3649439e+04   5.3183910e+04   5.2720024e+04   5.2259976e+04   5.1806496e+04   5.1362850e+04   5.0932820e+04   5.0520656e+04   5.0131005e+04   4.9768809e+04   4.9439191e+04   4.9147320e+04   4.8898265e+04   4.8696847e+04   4.8547486e+04   4.8454063e+04   4.8419791e+04   4.8447103e+04   4.8537564e+04   4.8691818e+04   4.8909549e+04   4.9189489e+04   4.9529439e+04   4.9926332e+04   5.0376313e+04   5.0874841e+04   5.1416814e+04   5.1996696e+04   5.2608656e+04   5.3246711e+04   5.3904854e+04   5.4577186e+04   5.5258027e+04   5.5942015e+04   5.6624188e+04   5.7300045e+04   5.7965590e+04   5.8617355e+04   5.9252412e+04   5.9868360e+04   6.0463307e+04   6.1035833e+04   6.1584958e+04   6.2110087e+04   6.2610964e+04   6.3087624e+04   6.3540339e+04   6.3969572e+04   6.4375934e+04   6.4760146e+04   6.5123002e+04   6.5465343e+04   6.5788029e+04   6.6091928e+04   6.6377892e+04   6.6646756e+04   6.6899325e+04
6.6491731e+04   6.6322247e+04   6.6153482e+04   6.5986298e+04   6.5821581e+04   6.5660228e+04   6.5503138e+04   6.5351200e+04   6.5205279e+04   6.5066206e+04   6.4934765e+04   6.4811680e+04   6.4697605e+04   6.4593112e+04   6.4498678e+04   6.4414683e+04   6.4341391e+04   6.4278953e+04   6.4227392e+04   6.4186602e+04   6.4156342e+04   6.4136235e+04   6.4125760e+04   6.4124254e+04   6.4130914e+04   6.4144789e+04   6.4164791e+04   6.4189690e+04   6.4218122e+04   6.4248594e+04   6.4279492e+04   6.4309089e+04   6.4335560e+04   6.4356996e+04   6.4371423e+04   6.4376824e+04   6.4371162e+04   6.4352411e+04   6.4318587e+04   6.4267782e+04   6.4198197e+04   6.4108185e+04   6.3996283e+04   6.3861250e+04   6.3702105e+04   6.3518147e+04   6.3308988e+04   6.3074565e+04   6.2815152e+04   6.2531354e+04   6.2224100e+04   6.1894618e+04   6.1544405e+04   6.1175180e+04   6.0788837e+04   6.0387379e+04   5.9972862e+04   5.9547325e+04   5.9112725e+04   5.8670878e+04   5.8223405e+04   5.7771693e+04   5.7316863e+04   5.6859765e+04   5.6400975e+04   5.5940831e+04   5.5479468e+04   5.5016881e+04   5.4553006e+04   5.4087800e+04   5.3621343e+04   5.3153932e+04   5.2686179e+04   5.2219102e+04   5.1754195e+04   5.1293492e+04   5.0839597e+04   5.0395695e+04   4.9965538e+04   4.9553393e+04   4.9163969e+04   4.8802318e+04   4.8473710e+04   4.8183494e+04   4.7936940e+04   4.7739082e+04   4.7594559e+04   4.7507458e+04   4.7481182e+04   4.7518326e+04   4.7620584e+04   4.7788686e+04   4.8022358e+04   4.8320323e+04   4.8680328e+04   4.9099207e+04   4.9572958e+04   5.0096860e+04   5.0665596e+04   5.1273392e+04   5.1914162e+04   5.2581655e+04   5.3269601e+04   5.3971838e+04   5.4682439e+04   5.5395812e+04   5.6106787e+04   5.6810682e+04   5.7503348e+04   5.8181195e+04   5.8841199e+04   5.9480897e+04   6.0098356e+04   6.0692146e+04   6.1261293e+04   6.1805230e+04   6.2323744e+04   6.2816923e+04   6.3285103e+04   6.3728816e+04   6.4148745e+04   6.4545681e+04   6.4920492e+04   6.5274084e+04   6.5607383e+04   6.5921314e+04   6.6216784e+04   6.6494672e+04   6.6755828e+04
6.6332551e+04   6.6154694e+04   6.5977604e+04   6.5802199e+04   6.5629423e+04   6.5460232e+04   6.5295582e+04   6.5136418e+04   6.4983657e+04   6.4838180e+04   6.4700814e+04   6.4572320e+04   6.4453381e+04   6.4344589e+04   6.4246437e+04   6.4159304e+04   6.4083449e+04   6.4019004e+04   6.3965964e+04   6.3924185e+04   6.3893376e+04   6.3873099e+04   6.3862764e+04   6.3861629e+04   6.3868800e+04   6.3883229e+04   6.3903721e+04   6.3928932e+04   6.3957377e+04   6.3987433e+04   6.4017354e+04   6.4045276e+04   6.4069232e+04   6.4087171e+04   6.4096978e+04   6.4096495e+04   6.4083553e+04   6.4055999e+04   6.4011733e+04   6.3948746e+04   6.3865157e+04   6.3759256e+04   6.3629544e+04   6.3474775e+04   6.3293987e+04   6.3086542e+04   6.2852145e+04   6.2590868e+04   6.2303154e+04   6.1989817e+04   6.1652028e+04   6.1291293e+04   6.0909407e+04   6.0508414e+04   6.0090541e+04   5.9658138e+04   5.9213597e+04   5.8759285e+04   5.8297466e+04   5.7830233e+04   5.7359446e+04   5.6886683e+04   5.6413212e+04   5.5939968e+04   5.5467561e+04   5.4996302e+04   5.4526249e+04   5.4057270e+04   5.3589125e+04   5.3121566e+04   5.2654438e+04   5.2187789e+04   5.1721978e+04   5.1257772e+04   5.0796436e+04   5.0339796e+04   4.9890285e+04   4.9450956e+04   4.9025474e+04   4.8618065e+04   4.8233445e+04   4.7876716e+04   4.7553240e+04   4.7268488e+04   4.7027881e+04   4.6836622e+04   4.6699523e+04   4.6620850e+04   4.6604168e+04   4.6652218e+04   4.6766815e+04   4.6948775e+04   4.7197876e+04   4.7512855e+04   4.7891431e+04   4.8330370e+04   4.8825568e+04   4.9372170e+04   4.9964693e+04   5.0597178e+04   5.1263337e+04   5.1956711e+04   5.2670815e+04   5.3399278e+04   5.4135974e+04   5.4875123e+04   5.5611389e+04   5.6339941e+04   5.7056508e+04   5.7757398e+04   5.8439514e+04   5.9100338e+04   5.9737910e+04   6.0350787e+04   6.0938005e+04   6.1499019e+04   6.2033652e+04   6.2542037e+04   6.3024560e+04   6.3481811e+04   6.3914530e+04   6.4323569e+04   6.4709849e+04   6.5074332e+04   6.5417995e+04   6.5741808e+04   6.6046717e+04   6.6333641e+04   6.6603455e+04
6.6168514e+04   6.5981911e+04   6.5796126e+04   6.5612139e+04   6.5430956e+04   6.5253596e+04   6.5081078e+04   6.4914406e+04   6.4754554e+04   6.4602454e+04   6.4458980e+04   6.4324930e+04   6.4201018e+04   6.4087858e+04   6.3985952e+04   6.3895680e+04   6.3817291e+04   6.3750892e+04   6.3696447e+04   6.3653765e+04   6.3622499e+04   6.3602142e+04   6.3592027e+04   6.3591322e+04   6.3599037e+04   6.3614017e+04   6.3634951e+04   6.3660372e+04   6.3688668e+04   6.3718083e+04   6.3746730e+04   6.3772604e+04   6.3793595e+04   6.3807509e+04   6.3812090e+04   6.3805043e+04   6.3784068e+04   6.3746891e+04   6.3691304e+04   6.3615206e+04   6.3516642e+04   6.3393852e+04   6.3245313e+04   6.3069783e+04   6.2866341e+04   6.2634419e+04   6.2373835e+04   6.2084807e+04   6.1767965e+04   6.1424347e+04   6.1055383e+04   6.0662867e+04   6.0248911e+04   5.9815895e+04   5.9366398e+04   5.8903124e+04   5.8428821e+04   5.7946195e+04   5.7457829e+04   5.6966105e+04   5.6473135e+04   5.5980703e+04   5.5490228e+04   5.5002745e+04   5.4518904e+04   5.4038998e+04   5.3563009e+04   5.3090676e+04   5.2621588e+04   5.2155280e+04   5.1691353e+04   5.1229588e+04   5.0770069e+04   5.0313287e+04   4.9860241e+04   4.9412511e+04   4.8972313e+04   4.8542519e+04   4.8126651e+04   4.7728837e+04   4.7353736e+04   4.7006441e+04   4.6692339e+04   4.6416966e+04   4.6185836e+04   4.6004266e+04   4.5877197e+04   4.5809030e+04   4.5803464e+04   4.5863364e+04   4.5990653e+04   4.6186234e+04   4.6449946e+04   4.6780557e+04   4.7175789e+04   4.7632378e+04   4.8146165e+04   4.8712208e+04   4.9324921e+04   4.9978217e+04   5.0665671e+04   5.1380675e+04   5.2116593e+04   5.2866905e+04   5.3625339e+04   5.4385981e+04   5.5143372e+04   5.5892575e+04   5.6629226e+04   5.7349563e+04   5.8050432e+04   5.8729278e+04   5.9384120e+04   6.0013509e+04   6.0616486e+04   6.1192526e+04   6.1741477e+04   6.2263506e+04   6.2759038e+04   6.3228702e+04   6.3673283e+04   6.4093672e+04   6.4490831e+04   6.4865760e+04   6.5219470e+04   6.5552961e+04   6.5867207e+04   6.6163147e+04   6.6441677e+04
6.5999413e+04   6.5803663e+04   6.5608788e+04   6.5415832e+04   6.5225869e+04   6.5039987e+04   6.4859272e+04   6.4684791e+04   6.4517580e+04   6.4358626e+04   6.4208851e+04   6.4069093e+04   6.3940097e+04   6.3822498e+04   6.3716806e+04   6.3623399e+04   6.3542511e+04   6.3474222e+04   6.3418454e+04   6.3374964e+04   6.3343341e+04   6.3323002e+04   6.3313191e+04   6.3312981e+04   6.3321272e+04   6.3336795e+04   6.3358115e+04   6.3383638e+04   6.3411614e+04   6.3440148e+04   6.3467213e+04   6.3490659e+04   6.3508233e+04   6.3517600e+04   6.3516366e+04   6.3502104e+04   6.3472393e+04   6.3424847e+04   6.3357162e+04   6.3267154e+04   6.3152813e+04   6.3012340e+04   6.2844207e+04   6.2647190e+04   6.2420424e+04   6.2163431e+04   6.1876152e+04   6.1558969e+04   6.1212711e+04   6.0838651e+04   6.0438488e+04   6.0014313e+04   5.9568565e+04   5.9103966e+04   5.8623451e+04   5.8130084e+04   5.7626970e+04   5.7117160e+04   5.6603561e+04   5.6088848e+04   5.5575388e+04   5.5065176e+04   5.4559791e+04   5.4060372e+04   5.3567616e+04   5.3081802e+04   5.2602844e+04   5.2130358e+04   5.1663759e+04   5.1202366e+04   5.0745531e+04   5.0292761e+04   4.9843847e+04   4.9398984e+04   4.8958878e+04   4.8524832e+04   4.8098803e+04   4.7683435e+04   4.7282055e+04   4.6898633e+04   4.6537716e+04   4.6204316e+04   4.5903785e+04   4.5641658e+04   4.5423478e+04   4.5254619e+04   4.5140100e+04   4.5084409e+04   4.5091343e+04   4.5163867e+04   4.5303994e+04   4.5512711e+04   4.5789925e+04   4.6134454e+04   4.6544052e+04   4.7015466e+04   4.7544529e+04   4.8126270e+04   4.8755058e+04   4.9424748e+04   5.0128844e+04   5.0860659e+04   5.1613474e+04   5.2380685e+04   5.3155935e+04   5.3933234e+04   5.4707050e+04   5.5472382e+04   5.6224815e+04   5.6960543e+04   5.7676380e+04   5.8369750e+04   5.9038658e+04   5.9681655e+04   6.0297787e+04   6.0886539e+04   6.1447777e+04   6.1981688e+04   6.2488719e+04   6.2969524e+04   6.3424911e+04   6.3855793e+04   6.4263156e+04   6.4648017e+04   6.5011403e+04   6.5354328e+04   6.5677776e+04   6.5982695e+04   6.6269984e+04
6.5825025e+04   6.5619701e+04   6.5415310e+04   6.5212970e+04   6.5013829e+04   6.4819047e+04   6.4629781e+04   6.4447171e+04   6.4272317e+04   6.4106264e+04   6.3949984e+04   6.3804359e+04   6.3670165e+04   6.3548055e+04   6.3438548e+04   6.3342015e+04   6.3258670e+04   6.3188561e+04   6.3131561e+04   6.3087368e+04   6.3055497e+04   6.3035279e+04   6.3025861e+04   6.3026209e+04   6.3035106e+04   6.3051159e+04   6.3072803e+04   6.3098304e+04   6.3125775e+04   6.3153177e+04   6.3178337e+04   6.3198964e+04   6.3212665e+04   6.3216966e+04   6.3209344e+04   6.3187252e+04   6.3148156e+04   6.3089575e+04   6.3009121e+04   6.2904552e+04   6.2773812e+04   6.2615091e+04   6.2426869e+04   6.2207964e+04   6.1957583e+04   6.1675352e+04   6.1361356e+04   6.1016149e+04   6.0640772e+04   6.0236740e+04   5.9806026e+04   5.9351021e+04   5.8874489e+04   5.8379490e+04   5.7869313e+04   5.7347375e+04   5.6817131e+04   5.6281970e+04   5.5745117e+04   5.5209532e+04   5.4677836e+04   5.4152230e+04   5.3634454e+04   5.3125751e+04   5.2626870e+04   5.2138084e+04   5.1659242e+04   5.1189846e+04   5.0729142e+04   5.0276242e+04   4.9830249e+04   4.9390394e+04   4.8956171e+04   4.8527468e+04   4.8104681e+04   4.7688806e+04   4.7281512e+04   4.6885174e+04   4.6502876e+04   4.6138380e+04   4.5796055e+04   4.5480776e+04   4.5197793e+04   4.4952570e+04   4.4750618e+04   4.4597304e+04   4.4497667e+04   4.4456236e+04   4.4476864e+04   4.4562582e+04   4.4715478e+04   4.4936613e+04   4.5225966e+04   4.5582425e+04   4.6003803e+04   4.6486898e+04   4.7027583e+04   4.7620917e+04   4.8261289e+04   4.8942564e+04   4.9658246e+04   5.0401643e+04   5.1166025e+04   5.1944771e+04   5.2731510e+04   5.3520232e+04   5.4305388e+04   5.5081962e+04   5.5845524e+04   5.6592259e+04   5.7318972e+04   5.8023082e+04   5.8702595e+04   5.9356062e+04   5.9982532e+04   6.0581495e+04   6.1152823e+04   6.1696709e+04   6.2213606e+04   6.2704173e+04   6.3169221e+04   6.3609668e+04   6.4026499e+04   6.4420729e+04   6.4793384e+04   6.5145470e+04   6.5477968e+04   6.5791813e+04   6.6087898e+04
6.5645116e+04   6.5429757e+04   6.5215397e+04   6.5003229e+04   6.4794482e+04   6.4590395e+04   6.4392205e+04   6.4201125e+04   6.4018325e+04   6.3844912e+04   6.3681914e+04   6.3530255e+04   6.3390743e+04   6.3264050e+04   6.3150700e+04   6.3051054e+04   6.2965302e+04   6.2893450e+04   6.2835319e+04   6.2790535e+04   6.2758531e+04   6.2738542e+04   6.2729608e+04   6.2730578e+04   6.2740107e+04   6.2756670e+04   6.2778561e+04   6.2803905e+04   6.2830668e+04   6.2856667e+04   6.2879585e+04   6.2896989e+04   6.2906350e+04   6.2905069e+04   6.2890501e+04   6.2859992e+04   6.2810915e+04   6.2740710e+04   6.2646930e+04   6.2527291e+04   6.2379723e+04   6.2202420e+04   6.1993898e+04   6.1753038e+04   6.1479139e+04   6.1171953e+04   6.0831717e+04   6.0459174e+04   6.0055581e+04   5.9622701e+04   5.9162777e+04   5.8678497e+04   5.8172937e+04   5.7649487e+04   5.7111769e+04   5.6563539e+04   5.6008582e+04   5.5450605e+04   5.4893130e+04   5.4339391e+04   5.3792242e+04   5.3254084e+04   5.2726806e+04   5.2211757e+04   5.1709734e+04   5.1221010e+04   5.0745379e+04   5.0282235e+04   4.9830672e+04   4.9389602e+04   4.8957893e+04   4.8534509e+04   4.8118650e+04   4.7709897e+04   4.7308326e+04   4.6914617e+04   4.6530124e+04   4.6156922e+04   4.5797816e+04   4.5456309e+04   4.5136543e+04   4.4843193e+04   4.4581342e+04   4.4356324e+04   4.4173546e+04   4.4038308e+04   4.3955609e+04   4.3929968e+04   4.3965247e+04   4.4064511e+04   4.4229898e+04   4.4462531e+04   4.4762467e+04   4.5128671e+04   4.5559046e+04   4.6050477e+04   4.6598926e+04   4.7199540e+04   4.7846790e+04   4.8534620e+04   4.9256610e+04   5.0006135e+04   5.0776528e+04   5.1561226e+04   5.2353905e+04   5.3148601e+04   5.3939804e+04   5.4722531e+04   5.5492379e+04   5.6245556e+04   5.6978885e+04   5.7689800e+04   5.8376314e+04   5.9036984e+04   5.9670860e+04   6.0277431e+04   6.0856562e+04   6.1408437e+04   6.1933500e+04   6.2432394e+04   6.2905913e+04   6.3354956e+04   6.3780488e+04   6.4183502e+04   6.4565000e+04   6.4925964e+04   6.5267348e+04   6.5590065e+04   6.5894980e+04
6.5459443e+04   6.5233559e+04   6.5008743e+04   6.4786274e+04   6.4567466e+04   6.4353644e+04   6.4146129e+04   6.3946215e+04   6.3755148e+04   6.3574101e+04   6.3404159e+04   6.3246291e+04   6.3101338e+04   6.2969989e+04   6.2852770e+04   6.2750030e+04   6.2661925e+04   6.2588417e+04   6.2529261e+04   6.2484006e+04   6.2451991e+04   6.2432344e+04   6.2423988e+04   6.2425641e+04   6.2435823e+04   6.2452865e+04   6.2474915e+04   6.2499949e+04   6.2525783e+04   6.2550087e+04   6.2570403e+04   6.2584161e+04   6.2588706e+04   6.2581320e+04   6.2559256e+04   6.2519771e+04   6.2460164e+04   6.2377820e+04   6.2270259e+04   6.2135184e+04   6.1970536e+04   6.1774545e+04   6.1545788e+04   6.1283234e+04   6.0986298e+04   6.0654874e+04   6.0289369e+04   5.9890724e+04   5.9460416e+04   5.9000452e+04   5.8513340e+04   5.8002050e+04   5.7469953e+04   5.6920744e+04   5.6358350e+04   5.5786836e+04   5.5210285e+04   5.4632691e+04   5.4057841e+04   5.3489212e+04   5.2929869e+04   5.2382390e+04   5.1848800e+04   5.1330541e+04   5.0828459e+04   5.0342827e+04   4.9873392e+04   4.9419458e+04   4.8979980e+04   4.8553692e+04   4.8139245e+04   4.7735353e+04   4.7340943e+04   4.6955296e+04   4.6578176e+04   4.6209941e+04   4.5851623e+04   4.5504978e+04   4.5172499e+04   4.4857397e+04   4.4563535e+04   4.4295340e+04   4.4057669e+04   4.3855659e+04   4.3694556e+04   4.3579528e+04   4.3515474e+04   4.3506846e+04   4.3557473e+04   4.3670413e+04   4.3847826e+04   4.4090886e+04   4.4399719e+04   4.4773385e+04   4.5209892e+04   4.5706251e+04   4.6258556e+04   4.6862095e+04   4.7511484e+04   4.8200814e+04   4.8923810e+04   4.9673989e+04   5.0444818e+04   5.1229861e+04   5.2022914e+04   5.2818117e+04   5.3610056e+04   5.4393828e+04   5.5165101e+04   5.5920139e+04   5.6655808e+04   5.7369574e+04   5.8059471e+04   5.8724064e+04   5.9362403e+04   5.9973967e+04   6.0558606e+04   6.1116481e+04   6.1648003e+04   6.2153784e+04   6.2634581e+04   6.3091252e+04   6.3524719e+04   6.3935933e+04   6.4325851e+04   6.4695412e+04   6.5045526e+04   6.5377065e+04   6.5690851e+04
6.5267761e+04   6.5030831e+04   6.4795044e+04   6.4561770e+04   6.4332415e+04   6.4108400e+04   6.3891137e+04   6.3682005e+04   6.3482331e+04   6.3293360e+04   6.3116236e+04   6.2951977e+04   6.2801454e+04   6.2665376e+04   6.2544265e+04   6.2438452e+04   6.2348058e+04   6.2272987e+04   6.2212923e+04   6.2167326e+04   6.2135429e+04   6.2116242e+04   6.2108558e+04   6.2110955e+04   6.2121805e+04   6.2139288e+04   6.2161395e+04   6.2185948e+04   6.2210610e+04   6.2232906e+04   6.2250237e+04   6.2259906e+04   6.2259140e+04   6.2245120e+04   6.2215014e+04   6.2166010e+04   6.2095360e+04   6.2000425e+04   6.1878720e+04   6.1727967e+04   6.1546152e+04   6.1331572e+04   6.1082897e+04   6.0799212e+04   6.0480072e+04   6.0125535e+04   5.9736191e+04   5.9313185e+04   5.8858217e+04   5.8373530e+04   5.7861884e+04   5.7326509e+04   5.6771043e+04   5.6199449e+04   5.5615926e+04   5.5024798e+04   5.4430406e+04   5.3836983e+04   5.3248539e+04   5.2668751e+04   5.2100861e+04   5.1547591e+04   5.1011080e+04   5.0492847e+04   4.9993780e+04   4.9514154e+04   4.9053681e+04   4.8611585e+04   4.8186707e+04   4.7777631e+04   4.7382819e+04   4.7000765e+04   4.6630149e+04   4.6269977e+04   4.5919721e+04   4.5579428e+04   4.5249809e+04   4.4932295e+04   4.4629051e+04   4.4342967e+04   4.4077596e+04   4.3837067e+04   4.3625963e+04   4.3449168e+04   4.3311706e+04   4.3218550e+04   4.3174445e+04   4.3183720e+04   4.3250120e+04   4.3376659e+04   4.3565489e+04   4.3817812e+04   4.4133819e+04   4.4512666e+04   4.4952489e+04   4.5450449e+04   4.6002812e+04   4.6605057e+04   4.7252001e+04   4.7937946e+04   4.8656827e+04   4.9402372e+04   5.0168252e+04   5.0948228e+04   5.1736274e+04   5.2526700e+04   5.3314237e+04   5.4094115e+04   5.4862109e+04   5.5614573e+04   5.6348443e+04   5.7061233e+04   5.7751007e+04   5.8416346e+04   5.9056298e+04   5.9670326e+04   6.0258252e+04   6.0820198e+04   6.1356532e+04   6.1867812e+04   6.2354736e+04   6.2818103e+04   6.3258771e+04   6.3677627e+04   6.4075565e+04   6.4453461e+04   6.4812165e+04   6.5152488e+04   6.5475200e+04
6.5069836e+04   6.4821307e+04   6.4574002e+04   6.4329389e+04   6.4088976e+04   6.3854284e+04   6.3626823e+04   6.3408068e+04   6.3199429e+04   6.3002229e+04   6.2817676e+04   6.2646835e+04   6.2490613e+04   6.2349730e+04   6.2224708e+04   6.2115851e+04   6.2023237e+04   6.1946706e+04   6.1885861e+04   6.1840060e+04   6.1808419e+04   6.1789818e+04   6.1782906e+04   6.1786108e+04   6.1797640e+04   6.1815517e+04   6.1837567e+04   6.1861453e+04   6.1884684e+04   6.1904637e+04   6.1918580e+04   6.1923695e+04   6.1917107e+04   6.1895911e+04   6.1857212e+04   6.1798158e+04   6.1715982e+04   6.1608051e+04   6.1471913e+04   6.1305346e+04   6.1106415e+04   6.0873522e+04   6.0605463e+04   6.0301471e+04   5.9961268e+04   5.9585093e+04   5.9173737e+04   5.8728553e+04   5.8251461e+04   5.7744930e+04   5.7211951e+04   5.6655985e+04   5.6080898e+04   5.5490881e+04   5.4890349e+04   5.4283836e+04   5.3675879e+04   5.3070895e+04   5.2473060e+04   5.1886199e+04   5.1313683e+04   5.0758338e+04   5.0222387e+04   4.9707405e+04   4.9214309e+04   4.8743377e+04   4.8294292e+04   4.7866223e+04   4.7457922e+04   4.7067853e+04   4.6694330e+04   4.6335668e+04   4.5990337e+04   4.5657107e+04   4.5335189e+04   4.5024345e+04   4.4724983e+04   4.4438213e+04   4.4165874e+04   4.3910518e+04   4.3675363e+04   4.3464208e+04   4.3281316e+04   4.3131273e+04   4.3018823e+04   4.2948694e+04   4.2925414e+04   4.2953140e+04   4.3035483e+04   4.3175370e+04   4.3374911e+04   4.3635316e+04   4.3956825e+04   4.4338693e+04   4.4779189e+04   4.5275650e+04   4.5824546e+04   4.6421587e+04   4.7061844e+04   4.7739880e+04   4.8449904e+04   4.9185917e+04   4.9941857e+04   5.0711741e+04   5.1489787e+04   5.2270525e+04   5.3048886e+04   5.3820273e+04   5.4580610e+04   5.5326370e+04   5.6054583e+04   5.6762829e+04   5.7449215e+04   5.8112338e+04   5.8751245e+04   5.9365377e+04   5.9954520e+04   6.0518745e+04   6.1058357e+04   6.1573845e+04   6.2065832e+04   6.2535035e+04   6.2982230e+04   6.3408222e+04   6.3813821e+04   6.4199825e+04   6.4567004e+04   6.4916097e+04   6.5247802e+04
6.4865451e+04   6.4604741e+04   6.4345341e+04   6.4088827e+04   6.3836817e+04   6.3590939e+04   6.3352810e+04   6.3124005e+04   6.2906028e+04   6.2700281e+04   6.2508040e+04   6.2330423e+04   6.2168368e+04   6.2022609e+04   6.1893659e+04   6.1781795e+04   6.1687041e+04   6.1609166e+04   6.1547679e+04   6.1501824e+04   6.1470590e+04   6.1452711e+04   6.1446679e+04   6.1450756e+04   6.1462985e+04   6.1481208e+04   6.1503084e+04   6.1526108e+04   6.1547634e+04   6.1564895e+04   6.1575029e+04   6.1575110e+04   6.1562173e+04   6.1533251e+04   6.1485407e+04   6.1415778e+04   6.1321613e+04   6.1200320e+04   6.1049517e+04   6.0867079e+04   6.0651192e+04   6.0400401e+04   6.0113665e+04   5.9790398e+04   5.9430514e+04   5.9034459e+04   5.8603234e+04   5.8138406e+04   5.7642109e+04   5.7117024e+04   5.6566345e+04   5.5993727e+04   5.5403222e+04   5.4799192e+04   5.4186210e+04   5.3568955e+04   5.2952091e+04   5.2340150e+04   5.1737407e+04   5.1147774e+04   5.0574691e+04   5.0021044e+04   4.9489097e+04   4.8980457e+04   4.8496055e+04   4.8036169e+04   4.7600465e+04   4.7188075e+04   4.6797695e+04   4.6427711e+04   4.6076333e+04   4.5741747e+04   4.5422264e+04   4.5116468e+04   4.4823354e+04   4.4542441e+04   4.4273862e+04   4.4018432e+04   4.3777670e+04   4.3553791e+04   4.3349666e+04   4.3168741e+04   4.3014929e+04   4.2892474e+04   4.2805797e+04   4.2759326e+04   4.2757326e+04   4.2803725e+04   4.2901956e+04   4.3054812e+04   4.3264329e+04   4.3531693e+04   4.3857181e+04   4.4240134e+04   4.4678962e+04   4.5171189e+04   4.5713515e+04   4.6301914e+04   4.6931746e+04   4.7597888e+04   4.8294872e+04   4.9017026e+04   4.9758610e+04   5.0513953e+04   5.1277567e+04   5.2044255e+04   5.2809191e+04   5.3567995e+04   5.4316772e+04   5.5052143e+04   5.5771254e+04   5.6471768e+04   5.7151844e+04   5.7810104e+04   5.8445590e+04   5.9057718e+04   5.9646229e+04   6.0211132e+04   6.0752657e+04   6.1271206e+04   6.1767312e+04   6.2241593e+04   6.2694727e+04   6.3127418e+04   6.3540376e+04   6.3934304e+04   6.4309879e+04   6.4667752e+04   6.5008538e+04
6.4654419e+04   6.4380918e+04   6.4108821e+04   6.3839819e+04   6.3575646e+04   6.3318050e+04   6.3068762e+04   6.2829464e+04   6.2601760e+04   6.2387138e+04   6.2186945e+04   6.2002352e+04   6.1834330e+04   6.1683626e+04   6.1550741e+04   6.1435915e+04   6.1339115e+04   6.1260027e+04   6.1198054e+04   6.1152315e+04   6.1121656e+04   6.1104653e+04   6.1099626e+04   6.1104659e+04   6.1117612e+04   6.1136143e+04   6.1157732e+04   6.1179703e+04   6.1199251e+04   6.1213467e+04   6.1219369e+04   6.1213930e+04   6.1194115e+04   6.1156913e+04   6.1099375e+04   6.1018656e+04   6.0912055e+04   6.0777063e+04   6.0611409e+04   6.0413105e+04   6.0180501e+04   5.9912328e+04   5.9607744e+04   5.9266381e+04   5.8888374e+04   5.8474394e+04   5.8025665e+04   5.7543972e+04   5.7031654e+04   5.6491582e+04   5.5927125e+04   5.5342092e+04   5.4740666e+04   5.4127320e+04   5.3506718e+04   5.2883608e+04   5.2262706e+04   5.1648579e+04   5.1045528e+04   5.0457478e+04   4.9887875e+04   4.9339607e+04   4.8814940e+04   4.8315478e+04   4.7842150e+04   4.7395229e+04   4.6974374e+04   4.6578705e+04   4.6206898e+04   4.5857304e+04   4.5528084e+04   4.5217353e+04   4.4923325e+04   4.4644460e+04   4.4379594e+04   4.4128053e+04   4.3889745e+04   4.3665220e+04   4.3455704e+04   4.3263088e+04   4.3089897e+04   4.2939212e+04   4.2814574e+04   4.2719856e+04   4.2659115e+04   4.2636439e+04   4.2655778e+04   4.2720787e+04   4.2834670e+04   4.3000048e+04   4.3218841e+04   4.3492183e+04   4.3820361e+04   4.4202792e+04   4.4638022e+04   4.5123766e+04   4.5656969e+04   4.6233890e+04   4.6850213e+04   4.7501161e+04   4.8181631e+04   4.8886320e+04   4.9609858e+04   5.0346933e+04   5.1092395e+04   5.1841360e+04   5.2589290e+04   5.3332051e+04   5.4065963e+04   5.4787820e+04   5.5494905e+04   5.6184979e+04   5.6856262e+04   5.7507404e+04   5.8137446e+04   5.8745776e+04   5.9332082e+04   5.9896303e+04   6.0438583e+04   6.0959227e+04   6.1458659e+04   6.1937388e+04   6.2395975e+04   6.2835011e+04   6.3255093e+04   6.3656814e+04   6.4040745e+04   6.4407438e+04   6.4757414e+04
6.4436594e+04   6.4149670e+04   6.3864249e+04   6.3582148e+04   6.3305228e+04   6.3035363e+04   6.2774407e+04   6.2524159e+04   6.2286328e+04   6.2062494e+04   6.1854078e+04   6.1662310e+04   6.1488192e+04   6.1332482e+04   6.1195664e+04   6.1077938e+04   6.0979203e+04   6.0899051e+04   6.0836770e+04   6.0791341e+04   6.0761451e+04   6.0745503e+04   6.0741633e+04   6.0747730e+04   6.0761459e+04   6.0780283e+04   6.0801495e+04   6.0822242e+04   6.0839557e+04   6.0850394e+04   6.0851653e+04   6.0840224e+04   6.0813016e+04   6.0766997e+04   6.0699234e+04   6.0606931e+04   6.0487475e+04   6.0338479e+04   6.0157823e+04   5.9943705e+04   5.9694679e+04   5.9409704e+04   5.9088182e+04   5.8729990e+04   5.8335515e+04   5.7905675e+04   5.7441928e+04   5.6946276e+04   5.6421254e+04   5.5869901e+04   5.5295724e+04   5.4702641e+04   5.4094911e+04   5.3477051e+04   5.2853740e+04   5.2229717e+04   5.1609667e+04   5.0998108e+04   5.0399283e+04   4.9817052e+04   4.9254801e+04   4.8715358e+04   4.8200942e+04   4.7713119e+04   4.7252798e+04   4.6820242e+04   4.6415114e+04   4.6036548e+04   4.5683236e+04   4.5353547e+04   4.5045651e+04   4.4757657e+04   4.4487755e+04   4.4234348e+04   4.3996184e+04   4.3772459e+04   4.3562912e+04   4.3367879e+04   4.3188325e+04   4.3025845e+04   4.2882628e+04   4.2761395e+04   4.2665302e+04   4.2597828e+04   4.2562641e+04   4.2563448e+04   4.2603845e+04   4.2687169e+04   4.2816351e+04   4.2993795e+04   4.3221267e+04   4.3499815e+04   4.3829709e+04   4.4210421e+04   4.4640621e+04   4.5118213e+04   4.5640389e+04   4.6203707e+04   4.6804192e+04   4.7437440e+04   4.8098740e+04   4.8783195e+04   4.9485838e+04   5.0201749e+04   5.0926156e+04   5.1654524e+04   5.2382629e+04   5.3106618e+04   5.3823050e+04   5.4528914e+04   5.5221648e+04   5.5899121e+04   5.6559628e+04   5.7201852e+04   5.7824833e+04   5.8427931e+04   5.9010776e+04   5.9573231e+04   6.0115346e+04   6.0637317e+04   6.1139453e+04   6.1622138e+04   6.2085810e+04   6.2530930e+04   6.2957974e+04   6.3367412e+04   6.3759702e+04   6.4135282e+04   6.4494574e+04
6.4211890e+04   6.3910890e+04   6.3611501e+04   6.3315673e+04   6.3025404e+04   6.2742704e+04   6.2469560e+04   6.2207893e+04   6.1959527e+04   6.1726140e+04   6.1509233e+04   6.1310091e+04   6.1129755e+04   6.0968987e+04   6.0828255e+04   6.0707709e+04   6.0607171e+04   6.0526134e+04   6.0463753e+04   6.0418860e+04   6.0389968e+04   6.0375292e+04   6.0372769e+04   6.0380080e+04   6.0394679e+04   6.0413825e+04   6.0434613e+04   6.0454009e+04   6.0468882e+04   6.0476049e+04   6.0472303e+04   6.0454458e+04   6.0419387e+04   6.0364058e+04   6.0285582e+04   6.0181246e+04   6.0048560e+04   5.9885297e+04   5.9689535e+04   5.9459695e+04   5.9194585e+04   5.8893432e+04   5.8555916e+04   5.8182199e+04   5.7772946e+04   5.7329339e+04   5.6853079e+04   5.6346387e+04   5.5811978e+04   5.5253037e+04   5.4673174e+04   5.4076364e+04   5.3466884e+04   5.2849225e+04   5.2228005e+04   5.1607868e+04   5.0993383e+04   5.0388933e+04   4.9798617e+04   4.9226151e+04   4.8674785e+04   4.8147229e+04   4.7645600e+04   4.7171395e+04   4.6725479e+04   4.6308102e+04   4.5918943e+04   4.5557174e+04   4.5221548e+04   4.4910504e+04   4.4622283e+04   4.4355063e+04   4.4107081e+04   4.3876765e+04   4.3662849e+04   4.3464476e+04   4.3281278e+04   4.3113435e+04   4.2961702e+04   4.2827412e+04   4.2712442e+04   4.2619162e+04   4.2550345e+04   4.2509066e+04   4.2498579e+04   4.2522181e+04   4.2583081e+04   4.2684256e+04   4.2828324e+04   4.3017431e+04   4.3253148e+04   4.3536398e+04   4.3867406e+04   4.4245671e+04   4.4669968e+04   4.5138377e+04   4.5648334e+04   4.6196696e+04   4.6779837e+04   4.7393738e+04   4.8034099e+04   4.8696450e+04   4.9376251e+04   5.0069002e+04   5.0770333e+04   5.1476083e+04   5.2182370e+04   5.2885644e+04   5.3582721e+04   5.4270808e+04   5.4947506e+04   5.5610812e+04   5.6259099e+04   5.6891089e+04   5.7505827e+04   5.8102642e+04   5.8681108e+04   5.9241006e+04   5.9782287e+04   6.0305034e+04   6.0809429e+04   6.1295729e+04   6.1764234e+04   6.2215274e+04   6.2649191e+04   6.3066325e+04   6.3467011e+04   6.3851572e+04   6.4220317e+04
6.3980290e+04   6.3664550e+04   6.3350535e+04   6.3040341e+04   6.2736110e+04   6.2440000e+04   6.2154138e+04   6.1880581e+04   6.1621270e+04   6.1377989e+04   6.1152325e+04   6.0945622e+04   6.0758956e+04   6.0593097e+04   6.0448488e+04   6.0325225e+04   6.0223049e+04   6.0141335e+04   6.0079101e+04   6.0035012e+04   6.0007394e+04   5.9994261e+04   5.9993331e+04   6.0002064e+04   6.0017693e+04   6.0037258e+04   6.0057647e+04   6.0075639e+04   6.0087939e+04   6.0091226e+04   6.0082194e+04   6.0057592e+04   6.0014272e+04   5.9949227e+04   5.9859634e+04   5.9742896e+04   5.9596680e+04   5.9418960e+04   5.9208049e+04   5.8962637e+04   5.8681823e+04   5.8365144e+04   5.8012595e+04   5.7624654e+04   5.7202287e+04   5.6746960e+04   5.6260626e+04   5.5745717e+04   5.5205120e+04   5.4642136e+04   5.4060439e+04   5.3464016e+04   5.2857098e+04   5.2244082e+04   5.1629447e+04   5.1017662e+04   5.0413089e+04   4.9819890e+04   4.9241936e+04   4.8682719e+04   4.8145282e+04   4.7632151e+04   4.7145298e+04   4.6686111e+04   4.6255392e+04   4.5853376e+04   4.5479769e+04   4.5133810e+04   4.4814354e+04   4.4519964e+04   4.4249024e+04   4.3999850e+04   4.3770809e+04   4.3560435e+04   4.3367531e+04   4.3191263e+04   4.3031233e+04   4.2887530e+04   4.2760752e+04   4.2652016e+04   4.2562922e+04   4.2495506e+04   4.2452168e+04   4.2435575e+04   4.2448554e+04   4.2493974e+04   4.2574622e+04   4.2693083e+04   4.2851624e+04   4.3052090e+04   4.3295821e+04   4.3583577e+04   4.3915500e+04   4.4291086e+04   4.4709191e+04   4.5168051e+04   4.5665327e+04   4.6198171e+04   4.6763300e+04   4.7357084e+04   4.7975640e+04   4.8614934e+04   4.9270867e+04   4.9939375e+04   5.0616504e+04   5.1298488e+04   5.1981803e+04   5.2663217e+04   5.3339821e+04   5.4009049e+04   5.4668684e+04   5.5316856e+04   5.5952024e+04   5.6572959e+04   5.7178711e+04   5.7768582e+04   5.8342091e+04   5.8898936e+04   5.9438966e+04   5.9962148e+04   6.0468537e+04   6.0958253e+04   6.1431457e+04   6.1888342e+04   6.2329109e+04   6.2753966e+04   6.3163121e+04   6.3556772e+04   6.3935117e+04
6.3741867e+04   6.3410715e+04   6.3081412e+04   6.2756207e+04   6.2437399e+04   6.2127301e+04   6.1828193e+04   6.1542273e+04   6.1271612e+04   6.1018105e+04   6.0783427e+04   6.0568988e+04   6.0375898e+04   6.0204934e+04   6.0056512e+04   5.9930668e+04   5.9827051e+04   5.9744914e+04   5.9683121e+04   5.9640158e+04   5.9614152e+04   5.9602896e+04   5.9603880e+04   5.9614327e+04   5.9631233e+04   5.9651410e+04   5.9671531e+04   5.9688178e+04   5.9697891e+04   5.9697213e+04   5.9682741e+04   5.9651174e+04   5.9599356e+04   5.9524322e+04   5.9423343e+04   5.9293964e+04   5.9134044e+04   5.8941789e+04   5.8715787e+04   5.8455033e+04   5.8158958e+04   5.7827440e+04   5.7460827e+04   5.7059937e+04   5.6626063e+04   5.6160965e+04   5.5666855e+04   5.5146373e+04   5.4602558e+04   5.4038805e+04   5.3458813e+04   5.2866531e+04   5.2266086e+04   5.1661714e+04   5.1057681e+04   5.0458198e+04   4.9867340e+04   4.9288965e+04   4.8726634e+04   4.8183541e+04   4.7662450e+04   4.7165649e+04   4.6694915e+04   4.6251496e+04   4.5836114e+04   4.5448984e+04   4.5089855e+04   4.4758063e+04   4.4452606e+04   4.4172231e+04   4.3915525e+04   4.3681022e+04   4.3467299e+04   4.3273078e+04   4.3097318e+04   4.2939290e+04   4.2798640e+04   4.2675437e+04   4.2570185e+04   4.2483833e+04   4.2417743e+04   4.2373648e+04   4.2353588e+04   4.2359827e+04   4.2394761e+04   4.2460813e+04   4.2560327e+04   4.2695465e+04   4.2868109e+04   4.3079769e+04   4.3331509e+04   4.3623891e+04   4.3956936e+04   4.4330104e+04   4.4742299e+04   4.5191884e+04   4.5676727e+04   4.6194255e+04   4.6741514e+04   4.7315256e+04   4.7912011e+04   4.8528178e+04   4.9160105e+04   4.9804167e+04   5.0456836e+04   5.1114747e+04   5.1774744e+04   5.2433925e+04   5.3089665e+04   5.3739635e+04   5.4381810e+04   5.5014459e+04   5.5636138e+04   5.6245670e+04   5.6842116e+04   5.7424757e+04   5.7993055e+04   5.8546630e+04   5.9085232e+04   5.9608709e+04   6.0116989e+04   6.0610054e+04   6.1087929e+04   6.1550661e+04   6.1998314e+04   6.2430961e+04   6.2848676e+04   6.3251537e+04   6.3639621e+04
6.3496798e+04   6.3149566e+04   6.2804315e+04   6.2463457e+04   6.2129460e+04   6.1804804e+04   6.1491928e+04   6.1193183e+04   6.0910777e+04   6.0646723e+04   6.0402792e+04   6.0180460e+04   5.9980877e+04   5.9804822e+04   5.9652682e+04   5.9524431e+04   5.9419616e+04   5.9337357e+04   5.9276357e+04   5.9234908e+04   5.9210925e+04   5.9201967e+04   5.9205279e+04   5.9217836e+04   5.9236383e+04   5.9257492e+04   5.9277613e+04   5.9293126e+04   5.9300400e+04   5.9295843e+04   5.9275963e+04   5.9237411e+04   5.9177038e+04   5.9091941e+04   5.8979503e+04   5.8837436e+04   5.8663818e+04   5.8457120e+04   5.8216234e+04   5.7940497e+04   5.7629699e+04   5.7284094e+04   5.6904407e+04   5.6491821e+04   5.6047972e+04   5.5574925e+04   5.5075151e+04   5.4551494e+04   5.4007129e+04   5.3445515e+04   5.2870342e+04   5.2285474e+04   5.1694880e+04   5.1102571e+04   5.0512531e+04   4.9928640e+04   4.9354612e+04   4.8793923e+04   4.8249751e+04   4.7724922e+04   4.7221863e+04   4.6742570e+04   4.6288584e+04   4.5860987e+04   4.5460405e+04   4.5087036e+04   4.4740684e+04   4.4420812e+04   4.4126607e+04   4.3857050e+04   4.3611002e+04   4.3387284e+04   4.3184763e+04   4.3002434e+04   4.2839490e+04   4.2695391e+04   4.2569906e+04   4.2463152e+04   4.2375604e+04   4.2308095e+04   4.2261794e+04   4.2238163e+04   4.2238905e+04   4.2265890e+04   4.2321084e+04   4.2406453e+04   4.2523883e+04   4.2675090e+04   4.2861539e+04   4.3084369e+04   4.3344335e+04   4.3641762e+04   4.3976513e+04   4.4347972e+04   4.4755056e+04   4.5196226e+04   4.5669527e+04   4.6172631e+04   4.6702898e+04   4.7257440e+04   4.7833187e+04   4.8426964e+04   4.9035555e+04   4.9655772e+04   5.0284513e+04   5.0918812e+04   5.1555888e+04   5.2193168e+04   5.2828320e+04   5.3459259e+04   5.4084154e+04   5.4701423e+04   5.5309724e+04   5.5907937e+04   5.6495143e+04   5.7070603e+04   5.7633732e+04   5.8184074e+04   5.8721282e+04   5.9245090e+04   5.9755301e+04   6.0251765e+04   6.0734365e+04   6.1203011e+04   6.1657629e+04   6.2098154e+04   6.2524532e+04   6.2936717e+04   6.3334669e+04
6.3245377e+04   6.2881410e+04   6.2519565e+04   6.2162428e+04   6.1812645e+04   6.1472872e+04   6.1145722e+04   6.0833707e+04   6.0539181e+04   6.0264282e+04   6.0010880e+04   5.9780526e+04   5.9574408e+04   5.9393310e+04   5.9237588e+04   5.9107145e+04   5.9001424e+04   5.8919406e+04   5.8859616e+04   5.8820147e+04   5.8798685e+04   5.8792545e+04   5.8798716e+04   5.8813905e+04   5.8834601e+04   5.8857123e+04   5.8877687e+04   5.8892468e+04   5.8897659e+04   5.8889535e+04   5.8864512e+04   5.8819205e+04   5.8750481e+04   5.8655508e+04   5.8531802e+04   5.8377262e+04   5.8190204e+04   5.7969391e+04   5.7714046e+04   5.7423868e+04   5.7099035e+04   5.6740201e+04   5.6348486e+04   5.5925455e+04   5.5473097e+04   5.4993791e+04   5.4490264e+04   5.3965553e+04   5.3422952e+04   5.2865959e+04   5.2298221e+04   5.1723473e+04   5.1145477e+04   5.0567966e+04   4.9994577e+04   4.9428799e+04   4.8873917e+04   4.8332959e+04   4.7808660e+04   4.7303418e+04   4.6819274e+04   4.6357886e+04   4.5920529e+04   4.5508095e+04   4.5121107e+04   4.4759749e+04   4.4423898e+04   4.4113174e+04   4.3826991e+04   4.3564622e+04   4.3325258e+04   4.3108080e+04   4.2912317e+04   4.2737314e+04   4.2582580e+04   4.2447839e+04   4.2333056e+04   4.2238467e+04   4.2164578e+04   4.2112165e+04   4.2082243e+04   4.2076041e+04   4.2094949e+04   4.2140462e+04   4.2214116e+04   4.2317422e+04   4.2451794e+04   4.2618482e+04   4.2818510e+04   4.3052617e+04   4.3321216e+04   4.3624357e+04   4.3961706e+04   4.4332537e+04   4.4735742e+04   4.5169842e+04   4.5633025e+04   4.6123180e+04   4.6637950e+04   4.7174783e+04   4.7730988e+04   4.8303795e+04   4.8890411e+04   4.9488074e+04   5.0094095e+04   5.0705908e+04   5.1321095e+04   5.1937420e+04   5.2552837e+04   5.3165510e+04   5.3773805e+04   5.4376295e+04   5.4971744e+04   5.5559096e+04   5.6137457e+04   5.6706075e+04   5.7264325e+04   5.7811681e+04   5.8347705e+04   5.8872026e+04   5.9384324e+04   5.9884321e+04   6.0371768e+04   6.0846437e+04   6.1308121e+04   6.1756622e+04   6.2191759e+04   6.2613364e+04   6.3021283e+04
6.2988034e+04   6.2606701e+04   6.2227639e+04   6.1853620e+04   6.1487479e+04   6.1132059e+04   6.0790156e+04   6.0464452e+04   6.0157456e+04   5.9871441e+04   5.9608383e+04   5.9369910e+04   5.9157251e+04   5.8971197e+04   5.8812071e+04   5.8679704e+04   5.8573428e+04   5.8492075e+04   5.8433990e+04   5.8397053e+04   5.8378712e+04   5.8376025e+04   5.8385712e+04   5.8404208e+04   5.8427727e+04   5.8452331e+04   5.8473994e+04   5.8488676e+04   5.8492394e+04   5.8481285e+04   5.8451678e+04   5.8400154e+04   5.8323603e+04   5.8219275e+04   5.8084828e+04   5.7918362e+04   5.7718452e+04   5.7484162e+04   5.7215067e+04   5.6911246e+04   5.6573281e+04   5.6202238e+04   5.5799647e+04   5.5367463e+04   5.4908034e+04   5.4424047e+04   5.3918484e+04   5.3394560e+04   5.2855672e+04   5.2305330e+04   5.1747107e+04   5.1184573e+04   5.0621242e+04   5.0060517e+04   4.9505644e+04   4.8959664e+04   4.8425381e+04   4.7905326e+04   4.7401740e+04   4.6916549e+04   4.6451367e+04   4.6007486e+04   4.5585889e+04   4.5187265e+04   4.4812034e+04   4.4460370e+04   4.4132244e+04   4.3827462e+04   4.3545705e+04   4.3286584e+04   4.3049680e+04   4.2834591e+04   4.2640980e+04   4.2468610e+04   4.2317376e+04   4.2187336e+04   4.2078721e+04   4.1991948e+04   4.1927614e+04   4.1886484e+04   4.1869471e+04   4.1877603e+04   4.1911984e+04   4.1973751e+04   4.2064024e+04   4.2183859e+04   4.2334190e+04   4.2515790e+04   4.2729222e+04   4.2974799e+04   4.3252563e+04   4.3562256e+04   4.3903312e+04   4.4274860e+04   4.4675725e+04   4.5104455e+04   4.5559343e+04   4.6038460e+04   4.6539697e+04   4.7060809e+04   4.7599454e+04   4.8153246e+04   4.8719791e+04   4.9296732e+04   4.9881784e+04   5.0472761e+04   5.1067606e+04   5.1664407e+04   5.2261407e+04   5.2857012e+04   5.3449791e+04   5.4038470e+04   5.4621926e+04   5.5199172e+04   5.5769346e+04   5.6331691e+04   5.6885547e+04   5.7430328e+04   5.7965514e+04   5.8490633e+04   5.9005254e+04   5.9508978e+04   6.0001429e+04   6.0482250e+04   6.0951104e+04   6.1407669e+04   6.1851639e+04   6.2282729e+04   6.2700674e+04
6.2725347e+04   6.2326052e+04   6.1929189e+04   6.1537722e+04   6.1154686e+04   6.0783124e+04   6.0426024e+04   6.0086249e+04   5.9766472e+04   5.9469107e+04   5.9196244e+04   5.8949594e+04   5.8730430e+04   5.8539552e+04   5.8377249e+04   5.8243280e+04   5.8136860e+04   5.8056670e+04   5.8000864e+04   5.7967105e+04   5.7952593e+04   5.7954121e+04   5.7968129e+04   5.7990770e+04   5.8017977e+04   5.8045545e+04   5.8069200e+04   5.8084683e+04   5.8087828e+04   5.8074635e+04   5.8041344e+04   5.7984504e+04   5.7901031e+04   5.7788263e+04   5.7644005e+04   5.7466567e+04   5.7254786e+04   5.7008044e+04   5.6726269e+04   5.6409931e+04   5.6060020e+04   5.5678023e+04   5.5265877e+04   5.4825931e+04   5.4360884e+04   5.3873730e+04   5.3367689e+04   5.2846143e+04   5.2312568e+04   5.1770467e+04   5.1223309e+04   5.0674469e+04   5.0127175e+04   4.9584470e+04   4.9049164e+04   4.8523818e+04   4.8010713e+04   4.7511850e+04   4.7028937e+04   4.6563405e+04   4.6116412e+04   4.5688867e+04   4.5281450e+04   4.4894644e+04   4.4528765e+04   4.4183995e+04   4.3860417e+04   4.3558049e+04   4.3276880e+04   4.3016898e+04   4.2778122e+04   4.2560626e+04   4.2364558e+04   4.2190162e+04   4.2037779e+04   4.1907861e+04   4.1800964e+04   4.1717741e+04   4.1658931e+04   4.1625339e+04   4.1617813e+04   4.1637214e+04   4.1684390e+04   4.1760141e+04   4.1865184e+04   4.2000122e+04   4.2165414e+04   4.2361345e+04   4.2588003e+04   4.2845260e+04   4.3132759e+04   4.3449907e+04   4.3795877e+04   4.4169613e+04   4.4569844e+04   4.4995103e+04   4.5443752e+04   4.5914006e+04   4.6403972e+04   4.6911673e+04   4.7435087e+04   4.7972179e+04   4.8520929e+04   4.9079362e+04   4.9645571e+04   5.0217740e+04   5.0794155e+04   5.1373218e+04   5.1953453e+04   5.2533505e+04   5.3112143e+04   5.3688248e+04   5.4260812e+04   5.4828923e+04   5.5391754e+04   5.5948555e+04   5.6498637e+04   5.7041365e+04   5.7576143e+04   5.8102412e+04   5.8619638e+04   5.9127308e+04   5.9624929e+04   6.0112025e+04   6.0588136e+04   6.1052821e+04   6.1505658e+04   6.1946251e+04   6.2374230e+04
6.2458054e+04   6.2040252e+04   6.1625050e+04   6.1215618e+04   6.0815201e+04   6.0427050e+04   6.0054357e+04   5.9700175e+04   5.9367351e+04   5.9058448e+04   5.8775677e+04   5.8520836e+04   5.8295250e+04   5.8099729e+04   5.7934530e+04   5.7799336e+04   5.7693248e+04   5.7614790e+04   5.7561924e+04   5.7532086e+04   5.7522224e+04   5.7528859e+04   5.7548146e+04   5.7575947e+04   5.7607910e+04   5.7639554e+04   5.7666353e+04   5.7683826e+04   5.7687619e+04   5.7673594e+04   5.7637899e+04   5.7577050e+04   5.7487990e+04   5.7368142e+04   5.7215464e+04   5.7028471e+04   5.6806266e+04   5.6548544e+04   5.6255589e+04   5.5928256e+04   5.5567942e+04   5.5176543e+04   5.4756403e+04   5.4310248e+04   5.3841121e+04   5.3352305e+04   5.2847243e+04   5.2329464e+04   5.1802505e+04   5.1269836e+04   5.0734801e+04   5.0200554e+04   4.9670016e+04   4.9145838e+04   4.8630376e+04   4.8125681e+04   4.7633496e+04   4.7155266e+04   4.6692157e+04   4.6245085e+04   4.5814747e+04   4.5401663e+04   4.5006211e+04   4.4628674e+04   4.4269275e+04   4.3928219e+04   4.3605724e+04   4.3302049e+04   4.3017517e+04   4.2752535e+04   4.2507597e+04   4.2283294e+04   4.2080310e+04   4.1899412e+04   4.1741437e+04   4.1607280e+04   4.1497867e+04   4.1414134e+04   4.1357006e+04   4.1327365e+04   4.1326032e+04   4.1353735e+04   4.1411091e+04   4.1498582e+04   4.1616541e+04   4.1765130e+04   4.1944334e+04   4.2153950e+04   4.2393586e+04   4.2662656e+04   4.2960390e+04   4.3285838e+04   4.3637883e+04   4.4015259e+04   4.4416563e+04   4.4840279e+04   4.5284801e+04   4.5748455e+04   4.6229521e+04   4.6726258e+04   4.7236929e+04   4.7759814e+04   4.8293238e+04   4.8835580e+04   4.9385288e+04   4.9940891e+04   5.0501002e+04   5.1064324e+04   5.1629648e+04   5.2195855e+04   5.2761905e+04   5.3326836e+04   5.3889755e+04   5.4449829e+04   5.5006274e+04   5.5558350e+04   5.6105352e+04   5.6646602e+04   5.7181443e+04   5.7709235e+04   5.8229352e+04   5.8741181e+04   5.9244120e+04   5.9737584e+04   6.0220999e+04   6.0693813e+04   6.1155498e+04   6.1605552e+04   6.2043504e+04
6.2187063e+04   6.1750270e+04   6.1316256e+04   6.0888405e+04   6.0470182e+04   6.0065057e+04   5.9676433e+04   5.9307566e+04   5.8961483e+04   5.8640906e+04   5.8348175e+04   5.8085182e+04   5.7853308e+04   5.7653375e+04   5.7485613e+04   5.7349631e+04   5.7244416e+04   5.7168331e+04   5.7119147e+04   5.7094068e+04   5.7089790e+04   5.7102557e+04   5.7128233e+04   5.7162388e+04   5.7200380e+04   5.7237448e+04   5.7268813e+04   5.7289765e+04   5.7295764e+04   5.7282527e+04   5.7246110e+04   5.7182992e+04   5.7090138e+04   5.6965055e+04   5.6805843e+04   5.6611221e+04   5.6380547e+04   5.6113819e+04   5.5811666e+04   5.5475314e+04   5.5106552e+04   5.4707670e+04   5.4281395e+04   5.3830815e+04   5.3359293e+04   5.2870379e+04   5.2367719e+04   5.1854966e+04   5.1335694e+04   5.0813324e+04   5.0291050e+04   4.9771789e+04   4.9258139e+04   4.8752347e+04   4.8256304e+04   4.7771543e+04   4.7299262e+04   4.6840350e+04   4.6395431e+04   4.5964910e+04   4.5549031e+04   4.5147934e+04   4.4761709e+04   4.4390452e+04   4.4034314e+04   4.3693542e+04   4.3368509e+04   4.3059742e+04   4.2767925e+04   4.2493909e+04   4.2238696e+04   4.2003425e+04   4.1789344e+04   4.1597779e+04   4.1430099e+04   4.1287672e+04   4.1171830e+04   4.1083828e+04   4.1024805e+04   4.0995758e+04   4.0997505e+04   4.1030673e+04   4.1095671e+04   4.1192690e+04   4.1321691e+04   4.1482413e+04   4.1674376e+04   4.1896895e+04   4.2149096e+04   4.2429933e+04   4.2738212e+04   4.3072611e+04   4.3431707e+04   4.3813994e+04   4.4217913e+04   4.4641869e+04   4.5084255e+04   4.5543470e+04   4.6017934e+04   4.6506106e+04   4.7006494e+04   4.7517663e+04   4.8038247e+04   4.8566949e+04   4.9102545e+04   4.9643883e+04   5.0189882e+04   5.0739528e+04   5.1291869e+04   5.1846005e+04   5.2401087e+04   5.2956304e+04   5.3510879e+04   5.4064057e+04   5.4615106e+04   5.5163301e+04   5.5707930e+04   5.6248281e+04   5.6783645e+04   5.7313314e+04   5.7836581e+04   5.8352744e+04   5.8861105e+04   5.9360975e+04   5.9851682e+04   6.0332571e+04   6.0803013e+04   6.1262411e+04   6.1710201e+04
6.1913456e+04   6.1457267e+04   6.1004046e+04   6.0557399e+04   6.0121020e+04   5.9698607e+04   5.9293785e+04   5.8910021e+04   5.8550532e+04   5.8218207e+04   5.7915523e+04   5.7644471e+04   5.7406494e+04   5.7202435e+04   5.7032496e+04   5.6896219e+04   5.6792474e+04   5.6719472e+04   5.6674786e+04   5.6655395e+04   5.6657738e+04   5.6677783e+04   5.6711104e+04   5.6752977e+04   5.6798467e+04   5.6842538e+04   5.6880151e+04   5.6906371e+04   5.6916467e+04   5.6906007e+04   5.6870954e+04   5.6807745e+04   5.6713358e+04   5.6585378e+04   5.6422034e+04   5.6222235e+04   5.5985578e+04   5.5712348e+04   5.5403493e+04   5.5060589e+04   5.4685789e+04   5.4281750e+04   5.3851553e+04   5.3398617e+04   5.2926595e+04   5.2439275e+04   5.1940478e+04   5.1433954e+04   5.0923294e+04   5.0411846e+04   4.9902644e+04   4.9398355e+04   4.8901245e+04   4.8413158e+04   4.7935521e+04   4.7469357e+04   4.7015331e+04   4.6573790e+04   4.6144834e+04   4.5728379e+04   4.5324239e+04   4.4932196e+04   4.4552075e+04   4.4183813e+04   4.3827511e+04   4.3483481e+04   4.3152277e+04   4.2834709e+04   4.2531847e+04   4.2245004e+04   4.1975707e+04   4.1725661e+04   4.1496699e+04   4.1290723e+04   4.1109648e+04   4.0955340e+04   4.0829555e+04   4.0733885e+04   4.0669712e+04   4.0638164e+04   4.0640086e+04   4.0676022e+04   4.0746200e+04   4.0850539e+04   4.0988652e+04   4.1159872e+04   4.1363269e+04   4.1597690e+04   4.1861786e+04   4.2154056e+04   4.2472878e+04   4.2816554e+04   4.3183340e+04   4.3571478e+04   4.3979231e+04   4.4404899e+04   4.4846846e+04   4.5303512e+04   4.5773425e+04   4.6255206e+04   4.6747574e+04   4.7249344e+04   4.7759425e+04   4.8276812e+04   4.8800577e+04   4.9329862e+04   4.9863869e+04   5.0401846e+04   5.0943078e+04   5.1486878e+04   5.2032575e+04   5.2579503e+04   5.3126999e+04   5.3674392e+04   5.4220998e+04   5.4766118e+04   5.5309037e+04   5.5849020e+04   5.6385317e+04   5.6917162e+04   5.7443779e+04   5.7964387e+04   5.8478201e+04   5.8984445e+04   5.9482354e+04   5.9971182e+04   6.0450210e+04   6.0918751e+04   6.1376158e+04
6.1638494e+04   6.1162597e+04   6.0689865e+04   6.0224135e+04   5.9769338e+04   5.9329410e+04   5.8908206e+04   5.8509410e+04   5.8136442e+04   5.7792363e+04   5.7479794e+04   5.7200834e+04   5.6956996e+04   5.6749145e+04   5.6577467e+04   5.6441436e+04   5.6339813e+04   5.6270658e+04   5.6231352e+04   5.6218651e+04   5.6228740e+04   5.6257314e+04   5.6299662e+04   5.6350765e+04   5.6405403e+04   5.6458262e+04   5.6504047e+04   5.6537597e+04   5.6553990e+04   5.6548646e+04   5.6517428e+04   5.6456722e+04   5.6363515e+04   5.6235451e+04   5.6070877e+04   5.5868871e+04   5.5629245e+04   5.5352540e+04   5.5039998e+04   5.4693509e+04   5.4315551e+04   5.3909111e+04   5.3477587e+04   5.3024686e+04   5.2554316e+04   5.2070465e+04   5.1577095e+04   5.1078026e+04   5.0576841e+04   5.0076797e+04   4.9580755e+04   4.9091129e+04   4.8609856e+04   4.8138384e+04   4.7677692e+04   4.7228317e+04   4.6790415e+04   4.6363825e+04   4.5948154e+04   4.5542868e+04   4.5147384e+04   4.4761165e+04   4.4383808e+04   4.4015120e+04   4.3655180e+04   4.3304392e+04   4.2963511e+04   4.2633651e+04   4.2316277e+04   4.2013174e+04   4.1726402e+04   4.1458238e+04   4.1211098e+04   4.0987467e+04   4.0789808e+04   4.0620488e+04   4.0481692e+04   4.0375361e+04   4.0303126e+04   4.0266263e+04   4.0265660e+04   4.0301796e+04   4.0374743e+04   4.0484166e+04   4.0629358e+04   4.0809264e+04   4.1022530e+04   4.1267551e+04   4.1542522e+04   4.1845496e+04   4.2174435e+04   4.2527265e+04   4.2901920e+04   4.3296383e+04   4.3708722e+04   4.4137117e+04   4.4579880e+04   4.5035463e+04   4.5502473e+04   4.5979661e+04   4.6465925e+04   4.6960293e+04   4.7461916e+04   4.7970046e+04   4.8484022e+04   4.9003251e+04   4.9527191e+04   5.0055330e+04   5.0587175e+04   5.1122232e+04   5.1659997e+04   5.2199945e+04   5.2741522e+04   5.3284136e+04   5.3827157e+04   5.4369915e+04   5.4911699e+04   5.5451758e+04   5.5989311e+04   5.6523543e+04   5.7053621e+04   5.7578694e+04   5.8097905e+04   5.8610400e+04   5.9115330e+04   5.9611871e+04   6.0099220e+04   6.0576611e+04   6.1043320e+04
6.1363618e+04   6.0867807e+04   6.0375365e+04   5.9890371e+04   5.9416997e+04   5.8959423e+04   5.8521744e+04   5.8107871e+04   5.7721429e+04   5.7365663e+04   5.7043345e+04   5.6756690e+04   5.6507283e+04   5.6296026e+04   5.6123088e+04   5.5987885e+04   5.5889077e+04   5.5824575e+04   5.5791579e+04   5.5786623e+04   5.5805649e+04   5.5844084e+04   5.5896936e+04   5.5958901e+04   5.6024477e+04   5.6088079e+04   5.6144162e+04   5.6187338e+04   5.6212497e+04   5.6214909e+04   5.6190333e+04   5.6135097e+04   5.6046185e+04   5.5921284e+04   5.5758839e+04   5.5558068e+04   5.5318972e+04   5.5042314e+04   5.4729586e+04   5.4382952e+04   5.4005172e+04   5.3599512e+04   5.3169639e+04   5.2719503e+04   5.2253217e+04   5.1774932e+04   5.1288708e+04   5.0798407e+04   5.0307576e+04   4.9819367e+04   4.9336459e+04   4.8861015e+04   4.8394652e+04   4.7938443e+04   4.7492944e+04   4.7058242e+04   4.6634025e+04   4.6219667e+04   4.5814334e+04   4.5417087e+04   4.5026999e+04   4.4643261e+04   4.4265280e+04   4.3892775e+04   4.3525838e+04   4.3164988e+04   4.2811200e+04   4.2465905e+04   4.2130966e+04   4.1808643e+04   4.1501522e+04   4.1212441e+04   4.0944391e+04   4.0700423e+04   4.0483538e+04   4.0296591e+04   4.0142192e+04   4.0022623e+04   3.9939766e+04   3.9895050e+04   3.9889416e+04   3.9923295e+04   3.9996617e+04   4.0108823e+04   4.0258906e+04   4.0445456e+04   4.0666719e+04   4.0920666e+04   4.1205060e+04   4.1517532e+04   4.1855644e+04   4.2216959e+04   4.2599096e+04   4.2999779e+04   4.3416879e+04   4.3848443e+04   4.4292712e+04   4.4748136e+04   4.5213370e+04   4.5687268e+04   4.6168874e+04   4.6657398e+04   4.7152198e+04   4.7652753e+04   4.8158635e+04   4.8669487e+04   4.9184995e+04   4.9704864e+04   5.0228799e+04   5.0756486e+04   5.1287574e+04   5.1821667e+04   5.2358314e+04   5.2897001e+04   5.3437151e+04   5.3978124e+04   5.4519219e+04   5.5059677e+04   5.5598691e+04   5.6135410e+04   5.6668950e+04   5.7198405e+04   5.7722853e+04   5.8241371e+04   5.8753042e+04   5.9256968e+04   5.9752274e+04   6.0238125e+04   6.0713726e+04
6.1090440e+04   6.0574628e+04   6.0062400e+04   5.9558077e+04   5.9066079e+04   5.8590840e+04   5.8136698e+04   5.7707796e+04   5.7307974e+04   5.6940668e+04   5.6608806e+04   5.6314726e+04   5.6060098e+04   5.5845861e+04   5.5672178e+04   5.5538417e+04   5.5443139e+04   5.5384121e+04   5.5358386e+04   5.5362260e+04   5.5391448e+04   5.5441120e+04   5.5506012e+04   5.5580547e+04   5.5658948e+04   5.5735368e+04   5.5804017e+04   5.5859290e+04   5.5895888e+04   5.5908933e+04   5.5894073e+04   5.5847574e+04   5.5766398e+04   5.5648263e+04   5.5491683e+04   5.5295990e+04   5.5061336e+04   5.4788666e+04   5.4479677e+04   5.4136756e+04   5.3762891e+04   5.3361575e+04   5.2936686e+04   5.2492363e+04   5.2032875e+04   5.1562483e+04   5.1085311e+04   5.0605222e+04   5.0125707e+04   4.9649795e+04   4.9179982e+04   4.8718182e+04   4.8265711e+04   4.7823296e+04   4.7391107e+04   4.6968824e+04   4.6555721e+04   4.6150766e+04   4.5752740e+04   4.5360363e+04   4.4972419e+04   4.4587883e+04   4.4206026e+04   4.3826517e+04   4.3449495e+04   4.3075622e+04   4.2706107e+04   4.2342702e+04   4.1987671e+04   4.1643732e+04   4.1313983e+04   4.1001799e+04   4.0710721e+04   4.0444337e+04   4.0206161e+04   3.9999511e+04   3.9827399e+04   3.9692434e+04   3.9596739e+04   3.9541894e+04   3.9528895e+04   3.9558140e+04   3.9629435e+04   3.9742019e+04   3.9894615e+04   4.0085489e+04   4.0312522e+04   4.0573297e+04   4.0865179e+04   4.1185405e+04   4.1531166e+04   4.1899684e+04   4.2288279e+04   4.2694428e+04   4.3115808e+04   4.3550329e+04   4.3996157e+04   4.4451717e+04   4.4915696e+04   4.5387026e+04   4.5864869e+04   4.6348586e+04   4.6837711e+04   4.7331915e+04   4.7830975e+04   4.8334736e+04   4.8843086e+04   4.9355921e+04   4.9873122e+04   5.0394534e+04   5.0919945e+04   5.1449076e+04   5.1981569e+04   5.2516985e+04   5.3054797e+04   5.3594396e+04   5.4135093e+04   5.4676127e+04   5.5216671e+04   5.5755846e+04   5.6292727e+04   5.6826360e+04   5.7355770e+04   5.7879975e+04   5.8397997e+04   5.8908875e+04   5.9411673e+04   5.9905491e+04   6.0389474e+04
