5.0532590e+04   5.0577530e+04   5.0623800e+04   5.0671125e+04   5.0719208e+04   5.0767730e+04   5.0816360e+04   5.0864760e+04   5.0912594e+04   5.0959538e+04   5.1005286e+04   5.1049557e+04   5.1092108e+04   5.1132733e+04   5.1171275e+04   5.1207630e+04   5.1241745e+04   5.1273624e+04   5.1303327e+04   5.1330964e+04   5.1356695e+04   5.1380723e+04   5.1403284e+04   5.1424643e+04   5.1445078e+04   5.1464876e+04   5.1484317e+04   5.1503665e+04   5.1523157e+04   5.1542993e+04   5.1563329e+04   5.1584263e+04   5.1605838e+04   5.1628033e+04   5.1650761e+04   5.1673874e+04   5.1697160e+04   5.1720353e+04   5.1743139e+04   5.1765164e+04   5.1786046e+04   5.1805387e+04   5.1822785e+04   5.1837847e+04   5.1850204e+04   5.1859521e+04   5.1865508e+04   5.1867931e+04   5.1866619e+04   5.1861471e+04   5.1852455e+04   5.1839613e+04   5.1823057e+04   5.1802961e+04   5.1779560e+04   5.1753139e+04   5.1724020e+04   5.1692552e+04   5.1659102e+04   5.1624039e+04   5.1587721e+04   5.1550489e+04   5.1512653e+04   5.1474485e+04   5.1436214e+04   5.1398021e+04   5.1360037e+04   5.1322345e+04   5.1284983e+04   5.1247943e+04   5.1211185e+04   5.1174640e+04   5.1138218e+04   5.1101818e+04   5.1065337e+04   5.1028676e+04   5.0991751e+04   5.0954496e+04   5.0916871e+04   5.0878865e+04   5.0840498e+04   5.0801821e+04   5.0762915e+04   5.0723890e+04   5.0684882e+04   5.0646046e+04   5.0607552e+04   5.0569581e+04   5.0532317e+04   5.0495941e+04   5.0460628e+04   5.0426539e+04   5.0393821e+04   5.0362600e+04   5.0332979e+04   5.0305039e+04   5.0278834e+04   5.0254395e+04   5.0231730e+04   5.0210823e+04   5.0191642e+04   5.0174132e+04   5.0158228e+04   5.0143849e+04   5.0130906e+04   5.0119306e+04   5.0108947e+04   5.0099729e+04   5.0091550e+04   5.0084313e+04   5.0077920e+04   5.0072283e+04   5.0067314e+04   5.0062935e+04   5.0059073e+04   5.0055661e+04   5.0052640e+04   5.0049957e+04   5.0047562e+04   5.0045416e+04   5.0043481e+04   5.0041725e+04   5.0040122e+04   5.0038646e+04   5.0037279e+04   5.0036002e+04   5.0034803e+04   5.0033668e+04   5.0032587e+04
5.0535089e+04   5.0579984e+04   5.0626154e+04   5.0673321e+04   5.0721182e+04   5.0769415e+04   5.0817687e+04   5.0865661e+04   5.0913003e+04   5.0959391e+04   5.1004525e+04   5.1048132e+04   5.1089976e+04   5.1129863e+04   5.1167648e+04   5.1203238e+04   5.1236595e+04   5.1267735e+04   5.1296732e+04   5.1323709e+04   5.1348836e+04   5.1372326e+04   5.1394423e+04   5.1415397e+04   5.1435530e+04   5.1455108e+04   5.1474409e+04   5.1493690e+04   5.1513182e+04   5.1533074e+04   5.1553506e+04   5.1574564e+04   5.1596275e+04   5.1618600e+04   5.1641434e+04   5.1664613e+04   5.1687908e+04   5.1711037e+04   5.1733673e+04   5.1755450e+04   5.1775977e+04   5.1794849e+04   5.1811660e+04   5.1826017e+04   5.1837551e+04   5.1845932e+04   5.1850877e+04   5.1852162e+04   5.1849626e+04   5.1843181e+04   5.1832807e+04   5.1818561e+04   5.1800569e+04   5.1779019e+04   5.1754162e+04   5.1726292e+04   5.1695746e+04   5.1662885e+04   5.1628086e+04   5.1591725e+04   5.1554171e+04   5.1515773e+04   5.1476846e+04   5.1437669e+04   5.1398478e+04   5.1359460e+04   5.1320750e+04   5.1282438e+04   5.1244565e+04   5.1207130e+04   5.1170097e+04   5.1133400e+04   5.1096955e+04   5.1060662e+04   5.1024420e+04   5.0988131e+04   5.0951711e+04   5.0915090e+04   5.0878226e+04   5.0841100e+04   5.0803727e+04   5.0766148e+04   5.0728433e+04   5.0690683e+04   5.0653019e+04   5.0615582e+04   5.0578531e+04   5.0542029e+04   5.0506248e+04   5.0471354e+04   5.0437509e+04   5.0404864e+04   5.0373553e+04   5.0343691e+04   5.0315375e+04   5.0288677e+04   5.0263647e+04   5.0240312e+04   5.0218677e+04   5.0198726e+04   5.0180426e+04   5.0163724e+04   5.0148555e+04   5.0134844e+04   5.0122505e+04   5.0111447e+04   5.0101575e+04   5.0092791e+04   5.0085000e+04   5.0078108e+04   5.0072022e+04   5.0066657e+04   5.0061932e+04   5.0057770e+04   5.0054103e+04   5.0050867e+04   5.0048006e+04   5.0045468e+04   5.0043207e+04   5.0041185e+04   5.0039366e+04   5.0037719e+04   5.0036219e+04   5.0034843e+04   5.0033572e+04   5.0032389e+04   5.0031281e+04   5.0030235e+04   5.0029243e+04
5.0536379e+04   5.0581142e+04   5.0627126e+04   5.0674049e+04   5.0721603e+04   5.0769465e+04   5.0817301e+04   5.0864773e+04   5.0911550e+04   5.0957314e+04   5.1001771e+04   5.1044653e+04   5.1085734e+04   5.1124831e+04   5.1161808e+04   5.1196585e+04   5.1229136e+04   5.1259490e+04   5.1287732e+04   5.1313996e+04   5.1338465e+04   5.1361358e+04   5.1382926e+04   5.1403444e+04   5.1423196e+04   5.1442467e+04   5.1461533e+04   5.1480646e+04   5.1500026e+04   5.1519854e+04   5.1540258e+04   5.1561310e+04   5.1583021e+04   5.1605337e+04   5.1628140e+04   5.1651246e+04   5.1674414e+04   5.1697350e+04   5.1719713e+04   5.1741128e+04   5.1761198e+04   5.1779512e+04   5.1795661e+04   5.1809254e+04   5.1819924e+04   5.1827347e+04   5.1831245e+04   5.1831405e+04   5.1827676e+04   5.1819980e+04   5.1808313e+04   5.1792740e+04   5.1773401e+04   5.1750498e+04   5.1724290e+04   5.1695085e+04   5.1663228e+04   5.1629091e+04   5.1593056e+04   5.1555510e+04   5.1516827e+04   5.1477361e+04   5.1437435e+04   5.1397334e+04   5.1357298e+04   5.1317520e+04   5.1278144e+04   5.1239262e+04   5.1200924e+04   5.1163135e+04   5.1125866e+04   5.1089056e+04   5.1052625e+04   5.1016481e+04   5.0980524e+04   5.0944659e+04   5.0908802e+04   5.0872884e+04   5.0836857e+04   5.0800699e+04   5.0764416e+04   5.0728041e+04   5.0691635e+04   5.0655283e+04   5.0619094e+04   5.0583195e+04   5.0547728e+04   5.0512841e+04   5.0478690e+04   5.0445427e+04   5.0413197e+04   5.0382138e+04   5.0352372e+04   5.0324004e+04   5.0297119e+04   5.0271783e+04   5.0248041e+04   5.0225913e+04   5.0205403e+04   5.0186495e+04   5.0169152e+04   5.0153327e+04   5.0138956e+04   5.0125966e+04   5.0114276e+04   5.0103800e+04   5.0094446e+04   5.0086125e+04   5.0078744e+04   5.0072214e+04   5.0066450e+04   5.0061369e+04   5.0056895e+04   5.0052956e+04   5.0049487e+04   5.0046429e+04   5.0043726e+04   5.0041332e+04   5.0039203e+04   5.0037301e+04   5.0035594e+04   5.0034052e+04   5.0032651e+04   5.0031369e+04   5.0030188e+04   5.0029093e+04   5.0028069e+04   5.0027107e+04   5.0026196e+04
5.0536384e+04   5.0580922e+04   5.0626627e+04   5.0673214e+04   5.0720371e+04   5.0767775e+04   5.0815090e+04   5.0861981e+04   5.0908118e+04   5.0953187e+04   5.0996898e+04   5.1038994e+04   5.1079254e+04   5.1117505e+04   5.1153622e+04   5.1187536e+04   5.1219232e+04   5.1248751e+04   5.1276188e+04   5.1301688e+04   5.1325442e+04   5.1347676e+04   5.1368649e+04   5.1388637e+04   5.1407926e+04   5.1426800e+04   5.1445532e+04   5.1464368e+04   5.1483521e+04   5.1503162e+04   5.1523407e+04   5.1544316e+04   5.1565887e+04   5.1588052e+04   5.1610679e+04   5.1633571e+04   5.1656475e+04   5.1679086e+04   5.1701054e+04   5.1721996e+04   5.1741510e+04   5.1759182e+04   5.1774604e+04   5.1787385e+04   5.1797163e+04   5.1803618e+04   5.1806482e+04   5.1805550e+04   5.1800680e+04   5.1791805e+04   5.1778931e+04   5.1762136e+04   5.1741569e+04   5.1717441e+04   5.1690022e+04   5.1659627e+04   5.1626610e+04   5.1591346e+04   5.1554227e+04   5.1515643e+04   5.1475973e+04   5.1435577e+04   5.1394782e+04   5.1353877e+04   5.1313108e+04   5.1272673e+04   5.1232723e+04   5.1193357e+04   5.1154632e+04   5.1116560e+04   5.1079119e+04   5.1042257e+04   5.1005901e+04   5.0969964e+04   5.0934351e+04   5.0898971e+04   5.0863741e+04   5.0828592e+04   5.0793474e+04   5.0758362e+04   5.0723253e+04   5.0688171e+04   5.0653166e+04   5.0618311e+04   5.0583701e+04   5.0549447e+04   5.0515673e+04   5.0482513e+04   5.0450103e+04   5.0418581e+04   5.0388076e+04   5.0358710e+04   5.0330593e+04   5.0303817e+04   5.0278458e+04   5.0254573e+04   5.0232200e+04   5.0211357e+04   5.0192042e+04   5.0174238e+04   5.0157912e+04   5.0143013e+04   5.0129484e+04   5.0117254e+04   5.0106248e+04   5.0096382e+04   5.0087572e+04   5.0079733e+04   5.0072778e+04   5.0066625e+04   5.0061191e+04   5.0056402e+04   5.0052184e+04   5.0048472e+04   5.0045203e+04   5.0042322e+04   5.0039778e+04   5.0037526e+04   5.0035525e+04   5.0033741e+04   5.0032142e+04   5.0030700e+04   5.0029394e+04   5.0028201e+04   5.0027105e+04   5.0026092e+04   5.0025148e+04   5.0024262e+04   5.0023427e+04
5.0535041e+04   5.0579256e+04   5.0624585e+04   5.0670739e+04   5.0717407e+04   5.0764261e+04   5.0810968e+04   5.0857193e+04   5.0902610e+04   5.0946909e+04   5.0989807e+04   5.1031051e+04   5.1070430e+04   5.1107778e+04   5.1142983e+04   5.1175983e+04   5.1206775e+04   5.1235409e+04   5.1261991e+04   5.1286673e+04   5.1309654e+04   5.1331168e+04   5.1351475e+04   5.1370857e+04   5.1389598e+04   5.1407983e+04   5.1426278e+04   5.1444725e+04   5.1463530e+04   5.1482854e+04   5.1502804e+04   5.1523428e+04   5.1544713e+04   5.1566579e+04   5.1588881e+04   5.1611413e+04   5.1633913e+04   5.1656064e+04   5.1677513e+04   5.1697871e+04   5.1716733e+04   5.1733685e+04   5.1748320e+04   5.1760249e+04   5.1769117e+04   5.1774610e+04   5.1776468e+04   5.1774493e+04   5.1768554e+04   5.1758594e+04   5.1744627e+04   5.1726740e+04   5.1705090e+04   5.1679898e+04   5.1651437e+04   5.1620031e+04   5.1586036e+04   5.1549833e+04   5.1511817e+04   5.1472380e+04   5.1431905e+04   5.1390753e+04   5.1349256e+04   5.1307706e+04   5.1266353e+04   5.1225402e+04   5.1185007e+04   5.1145277e+04   5.1106275e+04   5.1068021e+04   5.1030503e+04   5.0993676e+04   5.0957475e+04   5.0921820e+04   5.0886623e+04   5.0851798e+04   5.0817264e+04   5.0782952e+04   5.0748812e+04   5.0714813e+04   5.0680946e+04   5.0647228e+04   5.0613697e+04   5.0580413e+04   5.0547456e+04   5.0514921e+04   5.0482917e+04   5.0451559e+04   5.0420966e+04   5.0391258e+04   5.0362550e+04   5.0334947e+04   5.0308545e+04   5.0283426e+04   5.0259653e+04   5.0237276e+04   5.0216325e+04   5.0196814e+04   5.0178739e+04   5.0162081e+04   5.0146805e+04   5.0132866e+04   5.0120207e+04   5.0108761e+04   5.0098458e+04   5.0089220e+04   5.0080969e+04   5.0073624e+04   5.0067105e+04   5.0061335e+04   5.0056238e+04   5.0051744e+04   5.0047785e+04   5.0044300e+04   5.0041232e+04   5.0038527e+04   5.0036140e+04   5.0034028e+04   5.0032153e+04   5.0030483e+04   5.0028988e+04   5.0027643e+04   5.0026425e+04   5.0025317e+04   5.0024302e+04   5.0023365e+04   5.0022494e+04   5.0021681e+04   5.0020915e+04
5.0532303e+04   5.0576094e+04   5.0620946e+04   5.0666568e+04   5.0712647e+04   5.0758858e+04   5.0804866e+04   5.0850340e+04   5.0894956e+04   5.0938410e+04   5.0980422e+04   5.1020749e+04   5.1059185e+04   5.1095576e+04   5.1129814e+04   5.1161850e+04   5.1191688e+04   5.1219388e+04   5.1245062e+04   5.1268873e+04   5.1291024e+04   5.1311754e+04   5.1331326e+04   5.1350023e+04   5.1368130e+04   5.1385928e+04   5.1403680e+04   5.1421623e+04   5.1439955e+04   5.1458828e+04   5.1478342e+04   5.1498534e+04   5.1519381e+04   5.1540794e+04   5.1562618e+04   5.1584641e+04   5.1606590e+04   5.1628147e+04   5.1648951e+04   5.1668615e+04   5.1686730e+04   5.1702886e+04   5.1716679e+04   5.1727725e+04   5.1735674e+04   5.1740221e+04   5.1741113e+04   5.1738162e+04   5.1731244e+04   5.1720311e+04   5.1705385e+04   5.1686560e+04   5.1664000e+04   5.1637929e+04   5.1608627e+04   5.1576418e+04   5.1541661e+04   5.1504739e+04   5.1466047e+04   5.1425977e+04   5.1384914e+04   5.1343218e+04   5.1301223e+04   5.1259224e+04   5.1217475e+04   5.1176183e+04   5.1135509e+04   5.1095568e+04   5.1056431e+04   5.1018127e+04   5.0980652e+04   5.0943971e+04   5.0908026e+04   5.0872747e+04   5.0838052e+04   5.0803860e+04   5.0770094e+04   5.0736687e+04   5.0703587e+04   5.0670761e+04   5.0638193e+04   5.0605892e+04   5.0573885e+04   5.0542221e+04   5.0510964e+04   5.0480193e+04   5.0450001e+04   5.0420486e+04   5.0391749e+04   5.0363894e+04   5.0337018e+04   5.0311213e+04   5.0286559e+04   5.0263125e+04   5.0240966e+04   5.0220123e+04   5.0200618e+04   5.0182460e+04   5.0165643e+04   5.0150147e+04   5.0135938e+04   5.0122970e+04   5.0111192e+04   5.0100540e+04   5.0090949e+04   5.0082345e+04   5.0074657e+04   5.0067810e+04   5.0061729e+04   5.0056344e+04   5.0051585e+04   5.0047386e+04   5.0043686e+04   5.0040427e+04   5.0037556e+04   5.0035026e+04   5.0032793e+04   5.0030818e+04   5.0029065e+04   5.0027505e+04   5.0026110e+04   5.0024857e+04   5.0023726e+04   5.0022697e+04   5.0021757e+04   5.0020891e+04   5.0020090e+04   5.0019343e+04   5.0018642e+04
5.0528139e+04   5.0571403e+04   5.0615675e+04   5.0660663e+04   5.0706056e+04   5.0751527e+04   5.0796744e+04   5.0841379e+04   5.0885112e+04   5.0927643e+04   5.0968700e+04   5.1008043e+04   5.1045476e+04   5.1080852e+04   5.1114071e+04   5.1145092e+04   5.1173928e+04   5.1200645e+04   5.1225363e+04   5.1248250e+04   5.1269513e+04   5.1289395e+04   5.1308163e+04   5.1326096e+04   5.1343481e+04   5.1360595e+04   5.1377696e+04   5.1395017e+04   5.1412748e+04   5.1431035e+04   5.1449967e+04   5.1469577e+04   5.1489831e+04   5.1510633e+04   5.1531824e+04   5.1553183e+04   5.1574436e+04   5.1595260e+04   5.1615295e+04   5.1634152e+04   5.1651429e+04   5.1666716e+04   5.1679615e+04   5.1689751e+04   5.1696781e+04   5.1700406e+04   5.1700385e+04   5.1696535e+04   5.1688743e+04   5.1676966e+04   5.1661234e+04   5.1641645e+04   5.1618368e+04   5.1591628e+04   5.1561708e+04   5.1528931e+04   5.1493656e+04   5.1456264e+04   5.1417147e+04   5.1376696e+04   5.1335293e+04   5.1293299e+04   5.1251044e+04   5.1208825e+04   5.1166897e+04   5.1125472e+04   5.1084716e+04   5.1044748e+04   5.1005647e+04   5.0967451e+04   5.0930164e+04   5.0893761e+04   5.0858194e+04   5.0823399e+04   5.0789303e+04   5.0755830e+04   5.0722909e+04   5.0690473e+04   5.0658472e+04   5.0626869e+04   5.0595643e+04   5.0564796e+04   5.0534344e+04   5.0504324e+04   5.0474788e+04   5.0445798e+04   5.0417431e+04   5.0389768e+04   5.0362895e+04   5.0336897e+04   5.0311855e+04   5.0287848e+04   5.0264941e+04   5.0243191e+04   5.0222644e+04   5.0203330e+04   5.0185267e+04   5.0168458e+04   5.0152896e+04   5.0138557e+04   5.0125409e+04   5.0113409e+04   5.0102507e+04   5.0092644e+04   5.0083760e+04   5.0075786e+04   5.0068657e+04   5.0062303e+04   5.0056657e+04   5.0051653e+04   5.0047228e+04   5.0043321e+04   5.0039875e+04   5.0036838e+04   5.0034162e+04   5.0031803e+04   5.0029720e+04   5.0027877e+04   5.0026243e+04   5.0024789e+04   5.0023490e+04   5.0022325e+04   5.0021274e+04   5.0020321e+04   5.0019451e+04   5.0018653e+04   5.0017915e+04   5.0017230e+04   5.0016589e+04
5.0522538e+04   5.0565169e+04   5.0608757e+04   5.0653010e+04   5.0697616e+04   5.0742251e+04   5.0786585e+04   5.0830294e+04   5.0873063e+04   5.0914595e+04   5.0954625e+04   5.0992920e+04   5.1029291e+04   5.1063596e+04   5.1095746e+04   5.1125704e+04   5.1153490e+04   5.1179178e+04   5.1202892e+04   5.1224804e+04   5.1245125e+04   5.1264099e+04   5.1281992e+04   5.1299086e+04   5.1315662e+04   5.1331995e+04   5.1348339e+04   5.1364920e+04   5.1381922e+04   5.1399485e+04   5.1417692e+04   5.1436568e+04   5.1456074e+04   5.1476109e+04   5.1496509e+04   5.1517051e+04   5.1537460e+04   5.1557413e+04   5.1576554e+04   5.1594496e+04   5.1610842e+04   5.1625190e+04   5.1637150e+04   5.1646354e+04   5.1652468e+04   5.1655205e+04   5.1654330e+04   5.1649670e+04   5.1641118e+04   5.1628639e+04   5.1612266e+04   5.1592103e+04   5.1568317e+04   5.1541137e+04   5.1510841e+04   5.1477751e+04   5.1442223e+04   5.1404632e+04   5.1365365e+04   5.1324809e+04   5.1283341e+04   5.1241316e+04   5.1199065e+04   5.1156882e+04   5.1115022e+04   5.1073699e+04   5.1033081e+04   5.0993295e+04   5.0954425e+04   5.0916517e+04   5.0879584e+04   5.0843609e+04   5.0808554e+04   5.0774363e+04   5.0740972e+04   5.0708311e+04   5.0676313e+04   5.0644915e+04   5.0614066e+04   5.0583727e+04   5.0553876e+04   5.0524503e+04   5.0495620e+04   5.0467249e+04   5.0439430e+04   5.0412212e+04   5.0385656e+04   5.0359827e+04   5.0334794e+04   5.0310628e+04   5.0287394e+04   5.0265155e+04   5.0243965e+04   5.0223870e+04   5.0204904e+04   5.0187091e+04   5.0170442e+04   5.0154956e+04   5.0140622e+04   5.0127416e+04   5.0115308e+04   5.0104255e+04   5.0094210e+04   5.0085120e+04   5.0076927e+04   5.0069570e+04   5.0062987e+04   5.0057116e+04   5.0051895e+04   5.0047263e+04   5.0043163e+04   5.0039540e+04   5.0036342e+04   5.0033522e+04   5.0031035e+04   5.0028840e+04   5.0026903e+04   5.0025188e+04   5.0023668e+04   5.0022316e+04   5.0021109e+04   5.0020027e+04   5.0019052e+04   5.0018170e+04   5.0017367e+04   5.0016631e+04   5.0015953e+04   5.0015324e+04   5.0014738e+04
5.0515504e+04   5.0557399e+04   5.0600200e+04   5.0643615e+04   5.0687336e+04   5.0731039e+04   5.0774400e+04   5.0817098e+04   5.0858821e+04   5.0899280e+04   5.0938215e+04   5.0975399e+04   5.1010651e+04   5.1043834e+04   5.1074866e+04   5.1103716e+04   5.1130409e+04   5.1155025e+04   5.1177690e+04   5.1198580e+04   5.1217907e+04   5.1235916e+04   5.1252871e+04   5.1269052e+04   5.1284737e+04   5.1300197e+04   5.1315681e+04   5.1331408e+04   5.1347558e+04   5.1364264e+04   5.1381604e+04   5.1399598e+04   5.1418203e+04   5.1437316e+04   5.1456771e+04   5.1476346e+04   5.1495767e+04   5.1514716e+04   5.1532841e+04   5.1549762e+04   5.1565090e+04   5.1578433e+04   5.1589411e+04   5.1597666e+04   5.1602875e+04   5.1604761e+04   5.1603097e+04   5.1597721e+04   5.1588532e+04   5.1575499e+04   5.1558660e+04   5.1538119e+04   5.1514045e+04   5.1486661e+04   5.1456244e+04   5.1423109e+04   5.1387605e+04   5.1350100e+04   5.1310974e+04   5.1270604e+04   5.1229361e+04   5.1187595e+04   5.1145629e+04   5.1103756e+04   5.1062228e+04   5.1021259e+04   5.0981020e+04   5.0941642e+04   5.0903214e+04   5.0865789e+04   5.0829388e+04   5.0794003e+04   5.0759606e+04   5.0726148e+04   5.0693574e+04   5.0661820e+04   5.0630823e+04   5.0600526e+04   5.0570878e+04   5.0541838e+04   5.0513380e+04   5.0485492e+04   5.0458172e+04   5.0431437e+04   5.0405313e+04   5.0379837e+04   5.0355055e+04   5.0331017e+04   5.0307778e+04   5.0285392e+04   5.0263913e+04   5.0243389e+04   5.0223863e+04   5.0205368e+04   5.0187932e+04   5.0171568e+04   5.0156284e+04   5.0142075e+04   5.0128926e+04   5.0116814e+04   5.0105708e+04   5.0095569e+04   5.0086352e+04   5.0078006e+04   5.0070480e+04   5.0063718e+04   5.0057662e+04   5.0052256e+04   5.0047444e+04   5.0043171e+04   5.0039385e+04   5.0036036e+04   5.0033078e+04   5.0030465e+04   5.0028160e+04   5.0026125e+04   5.0024326e+04   5.0022734e+04   5.0021323e+04   5.0020067e+04   5.0018947e+04   5.0017944e+04   5.0017042e+04   5.0016226e+04   5.0015485e+04   5.0014808e+04   5.0014185e+04   5.0013609e+04   5.0013073e+04
5.0507060e+04   5.0548117e+04   5.0590030e+04   5.0632509e+04   5.0675247e+04   5.0717927e+04   5.0760226e+04   5.0801828e+04   5.0842429e+04   5.0881744e+04   5.0919519e+04   5.0955534e+04   5.0989612e+04   5.1021626e+04   5.1051495e+04   5.1079197e+04   5.1104759e+04   5.1128264e+04   5.1149842e+04   5.1169668e+04   5.1187956e+04   5.1204948e+04   5.1220907e+04   5.1236109e+04   5.1250828e+04   5.1265328e+04   5.1279855e+04   5.1294622e+04   5.1309804e+04   5.1325528e+04   5.1341867e+04   5.1358840e+04   5.1376400e+04   5.1394445e+04   5.1412809e+04   5.1431274e+04   5.1449571e+04   5.1467388e+04   5.1484381e+04   5.1500182e+04   5.1514412e+04   5.1526690e+04   5.1536648e+04   5.1543941e+04   5.1548260e+04   5.1549335e+04   5.1546954e+04   5.1540958e+04   5.1531257e+04   5.1517822e+04   5.1500694e+04   5.1479976e+04   5.1455835e+04   5.1428489e+04   5.1398208e+04   5.1365299e+04   5.1330102e+04   5.1292973e+04   5.1254282e+04   5.1214396e+04   5.1173676e+04   5.1132462e+04   5.1091072e+04   5.1049790e+04   5.1008867e+04   5.0968514e+04   5.0928903e+04   5.0890167e+04   5.0852401e+04   5.0815663e+04   5.0779981e+04   5.0745355e+04   5.0711765e+04   5.0679173e+04   5.0647529e+04   5.0616777e+04   5.0586860e+04   5.0557723e+04   5.0529317e+04   5.0501602e+04   5.0474549e+04   5.0448140e+04   5.0422369e+04   5.0397241e+04   5.0372773e+04   5.0348990e+04   5.0325925e+04   5.0303616e+04   5.0282104e+04   5.0261429e+04   5.0241632e+04   5.0222750e+04   5.0204813e+04   5.0187847e+04   5.0171869e+04   5.0156888e+04   5.0142904e+04   5.0129911e+04   5.0117890e+04   5.0106820e+04   5.0096668e+04   5.0087397e+04   5.0078967e+04   5.0071331e+04   5.0064440e+04   5.0058243e+04   5.0052689e+04   5.0047727e+04   5.0043305e+04   5.0039375e+04   5.0035888e+04   5.0032801e+04   5.0030070e+04   5.0027656e+04   5.0025524e+04   5.0023640e+04   5.0021974e+04   5.0020499e+04   5.0019191e+04   5.0018027e+04   5.0016990e+04   5.0016061e+04   5.0015227e+04   5.0014473e+04   5.0013790e+04   5.0013167e+04   5.0012595e+04   5.0012068e+04   5.0011579e+04
5.0497248e+04   5.0537369e+04   5.0578296e+04   5.0619743e+04   5.0661406e+04   5.0702973e+04   5.0744126e+04   5.0784554e+04   5.0823959e+04   5.0862063e+04   5.0898617e+04   5.0933408e+04   5.0966266e+04   5.0997066e+04   5.1025735e+04   5.1052252e+04   5.1076651e+04   5.1099013e+04   5.1119472e+04   5.1138200e+04   5.1155411e+04   5.1171343e+04   5.1186257e+04   5.1200422e+04   5.1214109e+04   5.1227575e+04   5.1241061e+04   5.1254773e+04   5.1268882e+04   5.1283510e+04   5.1298728e+04   5.1314552e+04   5.1330936e+04   5.1347778e+04   5.1364919e+04   5.1382144e+04   5.1399192e+04   5.1415762e+04   5.1431520e+04   5.1446112e+04   5.1459170e+04   5.1470330e+04   5.1479238e+04   5.1485564e+04   5.1489009e+04   5.1489320e+04   5.1486291e+04   5.1479775e+04   5.1469685e+04   5.1455999e+04   5.1438755e+04   5.1418058e+04   5.1394067e+04   5.1366995e+04   5.1337103e+04   5.1304686e+04   5.1270072e+04   5.1233604e+04   5.1195639e+04   5.1156531e+04   5.1116627e+04   5.1076257e+04   5.1035729e+04   5.0995319e+04   5.0955272e+04   5.0915796e+04   5.0877062e+04   5.0839204e+04   5.0802318e+04   5.0766470e+04   5.0731694e+04   5.0697996e+04   5.0665364e+04   5.0633767e+04   5.0603164e+04   5.0573506e+04   5.0544741e+04   5.0516818e+04   5.0489691e+04   5.0463320e+04   5.0437673e+04   5.0412730e+04   5.0388478e+04   5.0364917e+04   5.0342053e+04   5.0319901e+04   5.0298484e+04   5.0277827e+04   5.0257959e+04   5.0238910e+04   5.0220708e+04   5.0203379e+04   5.0186944e+04   5.0171420e+04   5.0156817e+04   5.0143138e+04   5.0130378e+04   5.0118528e+04   5.0107569e+04   5.0097478e+04   5.0088223e+04   5.0079770e+04   5.0072080e+04   5.0065110e+04   5.0058817e+04   5.0053153e+04   5.0048072e+04   5.0043528e+04   5.0039474e+04   5.0035867e+04   5.0032663e+04   5.0029822e+04   5.0027307e+04   5.0025081e+04   5.0023113e+04   5.0021372e+04   5.0019832e+04   5.0018467e+04   5.0017256e+04   5.0016180e+04   5.0015220e+04   5.0014361e+04   5.0013590e+04   5.0012895e+04   5.0012266e+04   5.0011693e+04   5.0011169e+04   5.0010687e+04   5.0010241e+04
5.0486126e+04   5.0525216e+04   5.0565065e+04   5.0605388e+04   5.0645889e+04   5.0686259e+04   5.0726188e+04   5.0765369e+04   5.0803510e+04   5.0840341e+04   5.0875620e+04   5.0909139e+04   5.0940732e+04   5.0970282e+04   5.0997719e+04   5.1023024e+04   5.1046233e+04   5.1067430e+04   5.1086744e+04   5.1104350e+04   5.1120455e+04   5.1135295e+04   5.1149125e+04   5.1162208e+04   5.1174810e+04   5.1187181e+04   5.1199554e+04   5.1212132e+04   5.1225079e+04   5.1238515e+04   5.1252509e+04   5.1267074e+04   5.1282168e+04   5.1297693e+04   5.1313494e+04   5.1329366e+04   5.1345058e+04   5.1360281e+04   5.1374715e+04   5.1388021e+04   5.1399848e+04   5.1409849e+04   5.1417685e+04   5.1423043e+04   5.1425638e+04   5.1425230e+04   5.1421626e+04   5.1414686e+04   5.1404328e+04   5.1390534e+04   5.1373342e+04   5.1352852e+04   5.1329218e+04   5.1302645e+04   5.1273380e+04   5.1241708e+04   5.1207939e+04   5.1172403e+04   5.1135439e+04   5.1097388e+04   5.1058580e+04   5.1019332e+04   5.0979939e+04   5.0940669e+04   5.0901759e+04   5.0863410e+04   5.0825792e+04   5.0789037e+04   5.0753245e+04   5.0718483e+04   5.0684790e+04   5.0652181e+04   5.0620650e+04   5.0590173e+04   5.0560716e+04   5.0532238e+04   5.0504690e+04   5.0478029e+04   5.0452208e+04   5.0427191e+04   5.0402945e+04   5.0379445e+04   5.0356677e+04   5.0334632e+04   5.0313310e+04   5.0292718e+04   5.0272868e+04   5.0253776e+04   5.0235461e+04   5.0217942e+04   5.0201237e+04   5.0185363e+04   5.0170333e+04   5.0156156e+04   5.0142836e+04   5.0130370e+04   5.0118751e+04   5.0107965e+04   5.0097994e+04   5.0088813e+04   5.0080393e+04   5.0072700e+04   5.0065699e+04   5.0059351e+04   5.0053614e+04   5.0048447e+04   5.0043807e+04   5.0039653e+04   5.0035943e+04   5.0032638e+04   5.0029699e+04   5.0027089e+04   5.0024776e+04   5.0022727e+04   5.0020913e+04   5.0019307e+04   5.0017884e+04   5.0016624e+04   5.0015504e+04   5.0014509e+04   5.0013622e+04   5.0012829e+04   5.0012118e+04   5.0011477e+04   5.0010898e+04   5.0010372e+04   5.0009891e+04   5.0009451e+04   5.0009044e+04
5.0473767e+04   5.0511739e+04   5.0550422e+04   5.0589539e+04   5.0628796e+04   5.0667892e+04   5.0706522e+04   5.0744389e+04   5.0781206e+04   5.0816710e+04   5.0850665e+04   5.0882869e+04   5.0913164e+04   5.0941434e+04   5.0967613e+04   5.0991687e+04   5.1013689e+04   5.1033704e+04   5.1051860e+04   5.1068328e+04   5.1083310e+04   5.1097037e+04   5.1109757e+04   5.1121729e+04   5.1133206e+04   5.1144437e+04   5.1155645e+04   5.1167028e+04   5.1178745e+04   5.1190913e+04   5.1203599e+04   5.1216818e+04   5.1230531e+04   5.1244644e+04   5.1259012e+04   5.1273440e+04   5.1287690e+04   5.1301486e+04   5.1314526e+04   5.1326488e+04   5.1337040e+04   5.1345852e+04   5.1352606e+04   5.1357003e+04   5.1358776e+04   5.1357700e+04   5.1353590e+04   5.1346317e+04   5.1335806e+04   5.1322038e+04   5.1305052e+04   5.1284943e+04   5.1261856e+04   5.1235986e+04   5.1207568e+04   5.1176870e+04   5.1144186e+04   5.1109829e+04   5.1074120e+04   5.1037380e+04   5.0999924e+04   5.0962053e+04   5.0924047e+04   5.0886163e+04   5.0848628e+04   5.0811638e+04   5.0775356e+04   5.0739913e+04   5.0705408e+04   5.0671913e+04   5.0639470e+04   5.0608099e+04   5.0577799e+04   5.0548556e+04   5.0520340e+04   5.0493116e+04   5.0466844e+04   5.0441482e+04   5.0416989e+04   5.0393329e+04   5.0370469e+04   5.0348384e+04   5.0327054e+04   5.0306469e+04   5.0286621e+04   5.0267511e+04   5.0249142e+04   5.0231522e+04   5.0214662e+04   5.0198572e+04   5.0183262e+04   5.0168740e+04   5.0155013e+04   5.0142083e+04   5.0129948e+04   5.0118603e+04   5.0108036e+04   5.0098232e+04   5.0089172e+04   5.0080830e+04   5.0073180e+04   5.0066189e+04   5.0059823e+04   5.0054048e+04   5.0048825e+04   5.0044117e+04   5.0039885e+04   5.0036093e+04   5.0032701e+04   5.0029676e+04   5.0026983e+04   5.0024589e+04   5.0022464e+04   5.0020579e+04   5.0018909e+04   5.0017429e+04   5.0016117e+04   5.0014953e+04   5.0013920e+04   5.0013001e+04   5.0012182e+04   5.0011450e+04   5.0010795e+04   5.0010205e+04   5.0009672e+04   5.0009189e+04   5.0008749e+04   5.0008347e+04   5.0007976e+04
5.0460261e+04   5.0497034e+04   5.0534472e+04   5.0572304e+04   5.0610244e+04   5.0647996e+04   5.0685263e+04   5.0721755e+04   5.0757195e+04   5.0791324e+04   5.0823914e+04   5.0854770e+04   5.0883738e+04   5.0910706e+04   5.0935612e+04   5.0958442e+04   5.0979230e+04   5.0998057e+04   5.1015051e+04   5.1030376e+04   5.1044230e+04   5.1056837e+04   5.1068438e+04   5.1079281e+04   5.1089615e+04   5.1099678e+04   5.1109688e+04   5.1119836e+04   5.1130276e+04   5.1141123e+04   5.1152444e+04   5.1164255e+04   5.1176521e+04   5.1189157e+04   5.1202025e+04   5.1214944e+04   5.1227689e+04   5.1240003e+04   5.1251601e+04   5.1262180e+04   5.1271430e+04   5.1279040e+04   5.1284711e+04   5.1288164e+04   5.1289150e+04   5.1287455e+04   5.1282910e+04   5.1275392e+04   5.1264831e+04   5.1251212e+04   5.1234570e+04   5.1214995e+04   5.1192623e+04   5.1167638e+04   5.1140259e+04   5.1110737e+04   5.1079349e+04   5.1046387e+04   5.1012152e+04   5.0976947e+04   5.0941067e+04   5.0904796e+04   5.0868399e+04   5.0832118e+04   5.0796169e+04   5.0760740e+04   5.0725988e+04   5.0692042e+04   5.0658998e+04   5.0626929e+04   5.0595881e+04   5.0565878e+04   5.0536925e+04   5.0509012e+04   5.0482118e+04   5.0456213e+04   5.0431263e+04   5.0407229e+04   5.0384075e+04   5.0361766e+04   5.0340272e+04   5.0319566e+04   5.0299628e+04   5.0280441e+04   5.0261995e+04   5.0244284e+04   5.0227308e+04   5.0211065e+04   5.0195560e+04   5.0180796e+04   5.0166776e+04   5.0153502e+04   5.0140974e+04   5.0129190e+04   5.0118144e+04   5.0107826e+04   5.0098223e+04   5.0089318e+04   5.0081091e+04   5.0073518e+04   5.0066571e+04   5.0060222e+04   5.0054438e+04   5.0049188e+04   5.0044436e+04   5.0040149e+04   5.0036293e+04   5.0032832e+04   5.0029734e+04   5.0026968e+04   5.0024502e+04   5.0022307e+04   5.0020356e+04   5.0018625e+04   5.0017088e+04   5.0015725e+04   5.0014516e+04   5.0013443e+04   5.0012490e+04   5.0011642e+04   5.0010886e+04   5.0010212e+04   5.0009607e+04   5.0009065e+04   5.0008575e+04   5.0008133e+04   5.0007730e+04   5.0007362e+04   5.0007025e+04
5.0445708e+04   5.0481210e+04   5.0517332e+04   5.0553811e+04   5.0590367e+04   5.0626713e+04   5.0662561e+04   5.0697628e+04   5.0731643e+04   5.0764359e+04   5.0795552e+04   5.0825034e+04   5.0852655e+04   5.0878309e+04   5.0901934e+04   5.0923516e+04   5.0943091e+04   5.0960736e+04   5.0976574e+04   5.0990765e+04   5.1003499e+04   5.1014993e+04   5.1025478e+04   5.1035194e+04   5.1044382e+04   5.1053271e+04   5.1062071e+04   5.1070966e+04   5.1080109e+04   5.1089608e+04   5.1099533e+04   5.1109901e+04   5.1120684e+04   5.1131803e+04   5.1143133e+04   5.1154505e+04   5.1165712e+04   5.1176514e+04   5.1186646e+04   5.1195827e+04   5.1203767e+04   5.1210178e+04   5.1214781e+04   5.1217317e+04   5.1217554e+04   5.1215294e+04   5.1210380e+04   5.1202697e+04   5.1192182e+04   5.1178818e+04   5.1162641e+04   5.1143731e+04   5.1122218e+04   5.1098270e+04   5.1072091e+04   5.1043915e+04   5.1013997e+04   5.0982610e+04   5.0950034e+04   5.0916549e+04   5.0882432e+04   5.0847947e+04   5.0813342e+04   5.0778845e+04   5.0744658e+04   5.0710960e+04   5.0677902e+04   5.0645605e+04   5.0614166e+04   5.0583657e+04   5.0554125e+04   5.0525598e+04   5.0498086e+04   5.0471585e+04   5.0446077e+04   5.0421541e+04   5.0397945e+04   5.0375257e+04   5.0353445e+04   5.0332476e+04   5.0312321e+04   5.0292954e+04   5.0274353e+04   5.0256501e+04   5.0239383e+04   5.0222991e+04   5.0207316e+04   5.0192356e+04   5.0178107e+04   5.0164567e+04   5.0151735e+04   5.0139606e+04   5.0128177e+04   5.0117440e+04   5.0107387e+04   5.0098006e+04   5.0089280e+04   5.0081194e+04   5.0073724e+04   5.0066849e+04   5.0060543e+04   5.0054777e+04   5.0049523e+04   5.0044750e+04   5.0040428e+04   5.0036526e+04   5.0033011e+04   5.0029855e+04   5.0027026e+04   5.0024497e+04   5.0022240e+04   5.0020228e+04   5.0018439e+04   5.0016848e+04   5.0015435e+04   5.0014181e+04   5.0013067e+04   5.0012078e+04   5.0011200e+04   5.0010418e+04   5.0009722e+04   5.0009100e+04   5.0008544e+04   5.0008045e+04   5.0007596e+04   5.0007190e+04   5.0006822e+04   5.0006486e+04   5.0006179e+04
5.0430222e+04   5.0464387e+04   5.0499132e+04   5.0534197e+04   5.0569313e+04   5.0604202e+04   5.0638582e+04   5.0672181e+04   5.0704737e+04   5.0736008e+04   5.0765781e+04   5.0793871e+04   5.0820135e+04   5.0844469e+04   5.0866814e+04   5.0887156e+04   5.0905528e+04   5.0922006e+04   5.0936706e+04   5.0949782e+04   5.0961417e+04   5.0971818e+04   5.0981208e+04   5.0989816e+04   5.0997874e+04   5.1005602e+04   5.1013202e+04   5.1020852e+04   5.1028699e+04   5.1036852e+04   5.1045377e+04   5.1054297e+04   5.1063589e+04   5.1073183e+04   5.1082967e+04   5.1092785e+04   5.1102448e+04   5.1111736e+04   5.1120405e+04   5.1128194e+04   5.1134838e+04   5.1140070e+04   5.1143633e+04   5.1145289e+04   5.1144824e+04   5.1142054e+04   5.1136835e+04   5.1129061e+04   5.1118674e+04   5.1105657e+04   5.1090044e+04   5.1071909e+04   5.1051369e+04   5.1028580e+04   5.1003728e+04   5.0977030e+04   5.0948720e+04   5.0919048e+04   5.0888272e+04   5.0856652e+04   5.0824442e+04   5.0791887e+04   5.0759217e+04   5.0726644e+04   5.0694357e+04   5.0662523e+04   5.0631284e+04   5.0600757e+04   5.0571036e+04   5.0542190e+04   5.0514269e+04   5.0487301e+04   5.0461302e+04   5.0436271e+04   5.0412198e+04   5.0389063e+04   5.0366842e+04   5.0345507e+04   5.0325030e+04   5.0305381e+04   5.0286533e+04   5.0268461e+04   5.0251142e+04   5.0234559e+04   5.0218696e+04   5.0203540e+04   5.0189080e+04   5.0175310e+04   5.0162221e+04   5.0149808e+04   5.0138065e+04   5.0126983e+04   5.0116556e+04   5.0106773e+04   5.0097622e+04   5.0089090e+04   5.0081160e+04   5.0073814e+04   5.0067031e+04   5.0060788e+04   5.0055061e+04   5.0049824e+04   5.0045049e+04   5.0040710e+04   5.0036778e+04   5.0033225e+04   5.0030022e+04   5.0027142e+04   5.0024559e+04   5.0022247e+04   5.0020181e+04   5.0018338e+04   5.0016696e+04   5.0015235e+04   5.0013937e+04   5.0012783e+04   5.0011758e+04   5.0010847e+04   5.0010038e+04   5.0009318e+04   5.0008677e+04   5.0008104e+04   5.0007593e+04   5.0007134e+04   5.0006722e+04   5.0006350e+04   5.0006014e+04   5.0005708e+04   5.0005428e+04
5.0413923e+04   5.0446698e+04   5.0480012e+04   5.0513615e+04   5.0547244e+04   5.0580632e+04   5.0613507e+04   5.0645604e+04   5.0676673e+04   5.0706479e+04   5.0734815e+04   5.0761506e+04   5.0786410e+04   5.0809428e+04   5.0830503e+04   5.0849620e+04   5.0866811e+04   5.0882145e+04   5.0895736e+04   5.0907729e+04   5.0918297e+04   5.0927640e+04   5.0935969e+04   5.0943505e+04   5.0950467e+04   5.0957067e+04   5.0963499e+04   5.0969934e+04   5.0976513e+04   5.0983345e+04   5.0990495e+04   5.0997990e+04   5.1005813e+04   5.1013904e+04   5.1022162e+04   5.1030449e+04   5.1038592e+04   5.1046391e+04   5.1053623e+04   5.1060052e+04   5.1065434e+04   5.1069526e+04   5.1072092e+04   5.1072916e+04   5.1071799e+04   5.1068577e+04   5.1063114e+04   5.1055315e+04   5.1045126e+04   5.1032532e+04   5.1017562e+04   5.1000284e+04   5.0980805e+04   5.0959264e+04   5.0935833e+04   5.0910707e+04   5.0884101e+04   5.0856243e+04   5.0827369e+04   5.0797714e+04   5.0767512e+04   5.0736988e+04   5.0706352e+04   5.0675801e+04   5.0645509e+04   5.0615632e+04   5.0586302e+04   5.0557630e+04   5.0529705e+04   5.0502595e+04   5.0476349e+04   5.0450999e+04   5.0426560e+04   5.0403038e+04   5.0380426e+04   5.0358710e+04   5.0337871e+04   5.0317884e+04   5.0298726e+04   5.0280369e+04   5.0262790e+04   5.0245965e+04   5.0229873e+04   5.0214494e+04   5.0199813e+04   5.0185814e+04   5.0172486e+04   5.0159817e+04   5.0147798e+04   5.0136420e+04   5.0125672e+04   5.0115546e+04   5.0106030e+04   5.0097112e+04   5.0088779e+04   5.0081015e+04   5.0073804e+04   5.0067127e+04   5.0060963e+04   5.0055291e+04   5.0050086e+04   5.0045326e+04   5.0040986e+04   5.0037038e+04   5.0033459e+04   5.0030222e+04   5.0027302e+04   5.0024674e+04   5.0022314e+04   5.0020200e+04   5.0018309e+04   5.0016620e+04   5.0015114e+04   5.0013773e+04   5.0012580e+04   5.0011519e+04   5.0010576e+04   5.0009738e+04   5.0008993e+04   5.0008330e+04   5.0007739e+04   5.0007213e+04   5.0006742e+04   5.0006321e+04   5.0005943e+04   5.0005603e+04   5.0005296e+04   5.0005017e+04   5.0004763e+04
5.0396939e+04   5.0428281e+04   5.0460121e+04   5.0492221e+04   5.0524327e+04   5.0556181e+04   5.0587522e+04   5.0618095e+04   5.0647658e+04   5.0675987e+04   5.0702881e+04   5.0728171e+04   5.0751723e+04   5.0773438e+04   5.0793261e+04   5.0811177e+04   5.0827214e+04   5.0841440e+04   5.0853959e+04   5.0864910e+04   5.0874457e+04   5.0882789e+04   5.0890106e+04   5.0896619e+04   5.0902537e+04   5.0908060e+04   5.0913375e+04   5.0918646e+04   5.0924009e+04   5.0929570e+04   5.0935395e+04   5.0941515e+04   5.0947919e+04   5.0954556e+04   5.0961339e+04   5.0968145e+04   5.0974819e+04   5.0981180e+04   5.0987029e+04   5.0992150e+04   5.0996324e+04   5.0999331e+04   5.1000957e+04   5.1001004e+04   5.0999294e+04   5.0995676e+04   5.0990029e+04   5.0982264e+04   5.0972333e+04   5.0960221e+04   5.0945953e+04   5.0929591e+04   5.0911229e+04   5.0890996e+04   5.0869043e+04   5.0845548e+04   5.0820705e+04   5.0794718e+04   5.0767802e+04   5.0740170e+04   5.0712034e+04   5.0683597e+04   5.0655053e+04   5.0626580e+04   5.0598338e+04   5.0570471e+04   5.0543102e+04   5.0516333e+04   5.0490250e+04   5.0464917e+04   5.0440382e+04   5.0416679e+04   5.0393825e+04   5.0371829e+04   5.0350688e+04   5.0330392e+04   5.0310926e+04   5.0292272e+04   5.0274407e+04   5.0257309e+04   5.0240957e+04   5.0225329e+04   5.0210405e+04   5.0196166e+04   5.0182596e+04   5.0169679e+04   5.0157402e+04   5.0145753e+04   5.0134719e+04   5.0124289e+04   5.0114451e+04   5.0105195e+04   5.0096507e+04   5.0088373e+04   5.0080780e+04   5.0073711e+04   5.0067148e+04   5.0061074e+04   5.0055468e+04   5.0050310e+04   5.0045577e+04   5.0041247e+04   5.0037297e+04   5.0033704e+04   5.0030443e+04   5.0027493e+04   5.0024829e+04   5.0022429e+04   5.0020273e+04   5.0018339e+04   5.0016608e+04   5.0015060e+04   5.0013679e+04   5.0012448e+04   5.0011352e+04   5.0010377e+04   5.0009509e+04   5.0008738e+04   5.0008052e+04   5.0007442e+04   5.0006899e+04   5.0006416e+04   5.0005984e+04   5.0005597e+04   5.0005251e+04   5.0004940e+04   5.0004659e+04   5.0004405e+04   5.0004175e+04
5.0379404e+04   5.0409277e+04   5.0439613e+04   5.0470180e+04   5.0500737e+04   5.0531034e+04   5.0560823e+04   5.0589858e+04   5.0617907e+04   5.0644755e+04   5.0670209e+04   5.0694108e+04   5.0716320e+04   5.0736752e+04   5.0755349e+04   5.0772096e+04   5.0787018e+04   5.0800176e+04   5.0811671e+04   5.0821630e+04   5.0830210e+04   5.0837589e+04   5.0843956e+04   5.0849509e+04   5.0854448e+04   5.0858962e+04   5.0863229e+04   5.0867406e+04   5.0871625e+04   5.0875987e+04   5.0880561e+04   5.0885380e+04   5.0890439e+04   5.0895698e+04   5.0901082e+04   5.0906481e+04   5.0911761e+04   5.0916760e+04   5.0921299e+04   5.0925187e+04   5.0928225e+04   5.0930216e+04   5.0930969e+04   5.0930305e+04   5.0928065e+04   5.0924111e+04   5.0918335e+04   5.0910656e+04   5.0901030e+04   5.0889443e+04   5.0875917e+04   5.0860506e+04   5.0843296e+04   5.0824397e+04   5.0803949e+04   5.0782108e+04   5.0759047e+04   5.0734951e+04   5.0710011e+04   5.0684419e+04   5.0658365e+04   5.0632032e+04   5.0605596e+04   5.0579217e+04   5.0553041e+04   5.0527200e+04   5.0501806e+04   5.0476955e+04   5.0452726e+04   5.0429181e+04   5.0406366e+04   5.0384314e+04   5.0363046e+04   5.0342572e+04   5.0322893e+04   5.0304003e+04   5.0285890e+04   5.0268541e+04   5.0251936e+04   5.0236058e+04   5.0220887e+04   5.0206403e+04   5.0192589e+04   5.0179426e+04   5.0166899e+04   5.0154993e+04   5.0143693e+04   5.0132985e+04   5.0122858e+04   5.0113298e+04   5.0104292e+04   5.0095828e+04   5.0087892e+04   5.0080469e+04   5.0073545e+04   5.0067103e+04   5.0061126e+04   5.0055596e+04   5.0050493e+04   5.0045798e+04   5.0041489e+04   5.0037547e+04   5.0033950e+04   5.0030676e+04   5.0027704e+04   5.0025012e+04   5.0022580e+04   5.0020389e+04   5.0018417e+04   5.0016648e+04   5.0015062e+04   5.0013644e+04   5.0012377e+04   5.0011247e+04   5.0010241e+04   5.0009344e+04   5.0008547e+04   5.0007838e+04   5.0007208e+04   5.0006647e+04   5.0006148e+04   5.0005703e+04   5.0005307e+04   5.0004953e+04   5.0004636e+04   5.0004351e+04   5.0004095e+04   5.0003864e+04   5.0003655e+04
5.0361450e+04   5.0389832e+04   5.0418641e+04   5.0447657e+04   5.0476649e+04   5.0505377e+04   5.0533605e+04   5.0561098e+04   5.0587633e+04   5.0613006e+04   5.0637032e+04   5.0659555e+04   5.0680450e+04   5.0699626e+04   5.0717031e+04   5.0732647e+04   5.0746496e+04   5.0758636e+04   5.0769159e+04   5.0778185e+04   5.0785861e+04   5.0792353e+04   5.0797840e+04   5.0802509e+04   5.0806545e+04   5.0810131e+04   5.0813434e+04   5.0816603e+04   5.0819766e+04   5.0823021e+04   5.0826437e+04   5.0830049e+04   5.0833859e+04   5.0837837e+04   5.0841917e+04   5.0846008e+04   5.0849990e+04   5.0853722e+04   5.0857045e+04   5.0859789e+04   5.0861779e+04   5.0862838e+04   5.0862796e+04   5.0861494e+04   5.0858789e+04   5.0854559e+04   5.0848705e+04   5.0841157e+04   5.0831873e+04   5.0820841e+04   5.0808079e+04   5.0793635e+04   5.0777583e+04   5.0760022e+04   5.0741074e+04   5.0720878e+04   5.0699587e+04   5.0677366e+04   5.0654383e+04   5.0630811e+04   5.0606817e+04   5.0582568e+04   5.0558218e+04   5.0533912e+04   5.0509783e+04   5.0485949e+04   5.0462513e+04   5.0439562e+04   5.0417171e+04   5.0395396e+04   5.0374283e+04   5.0353865e+04   5.0334163e+04   5.0315189e+04   5.0296946e+04   5.0279433e+04   5.0262641e+04   5.0246560e+04   5.0231175e+04   5.0216470e+04   5.0202430e+04   5.0189037e+04   5.0176274e+04   5.0164126e+04   5.0152578e+04   5.0141614e+04   5.0131221e+04   5.0121385e+04   5.0112092e+04   5.0103330e+04   5.0095085e+04   5.0087343e+04   5.0080091e+04   5.0073313e+04   5.0066995e+04   5.0061121e+04   5.0055672e+04   5.0050633e+04   5.0045983e+04   5.0041706e+04   5.0037781e+04   5.0034189e+04   5.0030910e+04   5.0027924e+04   5.0025213e+04   5.0022756e+04   5.0020535e+04   5.0018532e+04   5.0016729e+04   5.0015110e+04   5.0013658e+04   5.0012358e+04   5.0011196e+04   5.0010160e+04   5.0009235e+04   5.0008412e+04   5.0007680e+04   5.0007028e+04   5.0006449e+04   5.0005933e+04   5.0005475e+04   5.0005067e+04   5.0004704e+04   5.0004379e+04   5.0004089e+04   5.0003830e+04   5.0003596e+04   5.0003386e+04   5.0003196e+04
5.0343214e+04   5.0370091e+04   5.0397363e+04   5.0424819e+04   5.0452239e+04   5.0479396e+04   5.0506064e+04   5.0532019e+04   5.0557051e+04   5.0580962e+04   5.0603578e+04   5.0624749e+04   5.0644356e+04   5.0662310e+04   5.0678560e+04   5.0693089e+04   5.0705915e+04   5.0717091e+04   5.0726702e+04   5.0734859e+04   5.0741700e+04   5.0747378e+04   5.0752063e+04   5.0755929e+04   5.0759150e+04   5.0761898e+04   5.0764331e+04   5.0766591e+04   5.0768800e+04   5.0771052e+04   5.0773417e+04   5.0775933e+04   5.0778607e+04   5.0781416e+04   5.0784308e+04   5.0787205e+04   5.0790002e+04   5.0792577e+04   5.0794792e+04   5.0796497e+04   5.0797537e+04   5.0797757e+04   5.0797006e+04   5.0795143e+04   5.0792042e+04   5.0787595e+04   5.0781713e+04   5.0774334e+04   5.0765420e+04   5.0754960e+04   5.0742969e+04   5.0729487e+04   5.0714581e+04   5.0698336e+04   5.0680858e+04   5.0662271e+04   5.0642709e+04   5.0622316e+04   5.0601242e+04   5.0579637e+04   5.0557651e+04   5.0535431e+04   5.0513114e+04   5.0490829e+04   5.0468696e+04   5.0446820e+04   5.0425295e+04   5.0404200e+04   5.0383603e+04   5.0363558e+04   5.0344108e+04   5.0325284e+04   5.0307108e+04   5.0289595e+04   5.0272749e+04   5.0256572e+04   5.0241058e+04   5.0226200e+04   5.0211987e+04   5.0198406e+04   5.0185444e+04   5.0173086e+04   5.0161318e+04   5.0150125e+04   5.0139493e+04   5.0129408e+04   5.0119857e+04   5.0110827e+04   5.0102304e+04   5.0094274e+04   5.0086725e+04   5.0079644e+04   5.0073014e+04   5.0066823e+04   5.0061055e+04   5.0055695e+04   5.0050725e+04   5.0046129e+04   5.0041890e+04   5.0037990e+04   5.0034412e+04   5.0031136e+04   5.0028145e+04   5.0025421e+04   5.0022946e+04   5.0020703e+04   5.0018674e+04   5.0016842e+04   5.0015193e+04   5.0013711e+04   5.0012381e+04   5.0011190e+04   5.0010125e+04   5.0009174e+04   5.0008326e+04   5.0007570e+04   5.0006897e+04   5.0006299e+04   5.0005767e+04   5.0005294e+04   5.0004874e+04   5.0004500e+04   5.0004167e+04   5.0003870e+04   5.0003605e+04   5.0003368e+04   5.0003156e+04   5.0002965e+04   5.0002793e+04
5.0324826e+04   5.0350196e+04   5.0375929e+04   5.0401827e+04   5.0427680e+04   5.0453273e+04   5.0478391e+04   5.0502823e+04   5.0526368e+04   5.0548839e+04   5.0570071e+04   5.0589920e+04   5.0608272e+04   5.0625044e+04   5.0640184e+04   5.0653674e+04   5.0665530e+04   5.0675800e+04   5.0684561e+04   5.0691917e+04   5.0697995e+04   5.0702938e+04   5.0706903e+04   5.0710052e+04   5.0712551e+04   5.0714558e+04   5.0716223e+04   5.0717680e+04   5.0719045e+04   5.0720410e+04   5.0721843e+04   5.0723384e+04   5.0725045e+04   5.0726812e+04   5.0728642e+04   5.0730470e+04   5.0732208e+04   5.0733749e+04   5.0734975e+04   5.0735754e+04   5.0735951e+04   5.0735431e+04   5.0734062e+04   5.0731719e+04   5.0728292e+04   5.0723684e+04   5.0717820e+04   5.0710642e+04   5.0702118e+04   5.0692236e+04   5.0681008e+04   5.0668471e+04   5.0654680e+04   5.0639710e+04   5.0623653e+04   5.0606616e+04   5.0588717e+04   5.0570081e+04   5.0550839e+04   5.0531124e+04   5.0511066e+04   5.0490794e+04   5.0470430e+04   5.0450089e+04   5.0429875e+04   5.0409884e+04   5.0390198e+04   5.0370892e+04   5.0352025e+04   5.0333648e+04   5.0315801e+04   5.0298515e+04   5.0281812e+04   5.0265706e+04   5.0250205e+04   5.0235312e+04   5.0221025e+04   5.0207339e+04   5.0194245e+04   5.0181735e+04   5.0169796e+04   5.0158418e+04   5.0147586e+04   5.0137290e+04   5.0127516e+04   5.0118251e+04   5.0109482e+04   5.0101198e+04   5.0093384e+04   5.0086029e+04   5.0079119e+04   5.0072641e+04   5.0066580e+04   5.0060924e+04   5.0055656e+04   5.0050762e+04   5.0046227e+04   5.0042034e+04   5.0038167e+04   5.0034610e+04   5.0031345e+04   5.0028356e+04   5.0025627e+04   5.0023141e+04   5.0020881e+04   5.0018831e+04   5.0016977e+04   5.0015302e+04   5.0013794e+04   5.0012437e+04   5.0011219e+04   5.0010128e+04   5.0009152e+04   5.0008280e+04   5.0007502e+04   5.0006809e+04   5.0006192e+04   5.0005643e+04   5.0005155e+04   5.0004721e+04   5.0004336e+04   5.0003993e+04   5.0003689e+04   5.0003417e+04   5.0003176e+04   5.0002960e+04   5.0002767e+04   5.0002593e+04   5.0002437e+04
5.0306416e+04   5.0330285e+04   5.0354489e+04   5.0378839e+04   5.0403138e+04   5.0427183e+04   5.0450770e+04   5.0473701e+04   5.0495784e+04   5.0516845e+04   5.0536724e+04   5.0555287e+04   5.0572425e+04   5.0588057e+04   5.0602134e+04   5.0614638e+04   5.0625580e+04   5.0635004e+04   5.0642980e+04   5.0649604e+04   5.0654993e+04   5.0659280e+04   5.0662609e+04   5.0665132e+04   5.0667002e+04   5.0668369e+04   5.0669371e+04   5.0670135e+04   5.0670772e+04   5.0671370e+04   5.0671995e+04   5.0672688e+04   5.0673468e+04   5.0674325e+04   5.0675227e+04   5.0676119e+04   5.0676930e+04   5.0677567e+04   5.0677927e+04   5.0677900e+04   5.0677366e+04   5.0676209e+04   5.0674314e+04   5.0671572e+04   5.0667888e+04   5.0663176e+04   5.0657370e+04   5.0650421e+04   5.0642297e+04   5.0632991e+04   5.0622510e+04   5.0610886e+04   5.0598166e+04   5.0584415e+04   5.0569713e+04   5.0554150e+04   5.0537830e+04   5.0520861e+04   5.0503357e+04   5.0485432e+04   5.0467202e+04   5.0448778e+04   5.0430267e+04   5.0411769e+04   5.0393379e+04   5.0375178e+04   5.0357243e+04   5.0339639e+04   5.0322420e+04   5.0305634e+04   5.0289317e+04   5.0273499e+04   5.0258202e+04   5.0243439e+04   5.0229222e+04   5.0215553e+04   5.0202434e+04   5.0189862e+04   5.0177832e+04   5.0166336e+04   5.0155365e+04   5.0144910e+04   5.0134959e+04   5.0125504e+04   5.0116531e+04   5.0108029e+04   5.0099988e+04   5.0092394e+04   5.0085236e+04   5.0078502e+04   5.0072179e+04   5.0066255e+04   5.0060715e+04   5.0055547e+04   5.0050736e+04   5.0046268e+04   5.0042128e+04   5.0038301e+04   5.0034773e+04   5.0031526e+04   5.0028547e+04   5.0025820e+04   5.0023329e+04   5.0021059e+04   5.0018995e+04   5.0017123e+04   5.0015428e+04   5.0013897e+04   5.0012518e+04   5.0011276e+04   5.0010162e+04   5.0009163e+04   5.0008268e+04   5.0007470e+04   5.0006757e+04   5.0006121e+04   5.0005556e+04   5.0005053e+04   5.0004606e+04   5.0004209e+04   5.0003856e+04   5.0003542e+04   5.0003264e+04   5.0003016e+04   5.0002796e+04   5.0002599e+04   5.0002424e+04   5.0002266e+04   5.0002125e+04
5.0288105e+04   5.0310490e+04   5.0333181e+04   5.0356004e+04   5.0378771e+04   5.0401293e+04   5.0423377e+04   5.0444835e+04   5.0465490e+04   5.0485174e+04   5.0503739e+04   5.0521056e+04   5.0537024e+04   5.0551564e+04   5.0564628e+04   5.0576198e+04   5.0586284e+04   5.0594923e+04   5.0602180e+04   5.0608141e+04   5.0612915e+04   5.0616624e+04   5.0619401e+04   5.0621387e+04   5.0622723e+04   5.0623549e+04   5.0623993e+04   5.0624176e+04   5.0624201e+04   5.0624152e+04   5.0624094e+04   5.0624071e+04   5.0624101e+04   5.0624182e+04   5.0624292e+04   5.0624385e+04   5.0624402e+04   5.0624266e+04   5.0623888e+04   5.0623174e+04   5.0622022e+04   5.0620332e+04   5.0618003e+04   5.0614943e+04   5.0611067e+04   5.0606304e+04   5.0600594e+04   5.0593894e+04   5.0586178e+04   5.0577437e+04   5.0567678e+04   5.0556927e+04   5.0545225e+04   5.0532626e+04   5.0519200e+04   5.0505023e+04   5.0490186e+04   5.0474780e+04   5.0458904e+04   5.0442657e+04   5.0426139e+04   5.0409446e+04   5.0392673e+04   5.0375906e+04   5.0359228e+04   5.0342712e+04   5.0326424e+04   5.0310423e+04   5.0294759e+04   5.0279474e+04   5.0264603e+04   5.0250172e+04   5.0236204e+04   5.0222713e+04   5.0209710e+04   5.0197200e+04   5.0185187e+04   5.0173668e+04   5.0162641e+04   5.0152101e+04   5.0142041e+04   5.0132454e+04   5.0123330e+04   5.0114661e+04   5.0106436e+04   5.0098646e+04   5.0091280e+04   5.0084327e+04   5.0077775e+04   5.0071614e+04   5.0065832e+04   5.0060416e+04   5.0055354e+04   5.0050633e+04   5.0046240e+04   5.0042161e+04   5.0038383e+04   5.0034891e+04   5.0031671e+04   5.0028709e+04   5.0025990e+04   5.0023501e+04   5.0021228e+04   5.0019155e+04   5.0017271e+04   5.0015561e+04   5.0014013e+04   5.0012614e+04   5.0011353e+04   5.0010217e+04   5.0009198e+04   5.0008284e+04   5.0007466e+04   5.0006734e+04   5.0006082e+04   5.0005500e+04   5.0004982e+04   5.0004522e+04   5.0004113e+04   5.0003749e+04   5.0003427e+04   5.0003140e+04   5.0002886e+04   5.0002660e+04   5.0002460e+04   5.0002281e+04   5.0002121e+04   5.0001979e+04   5.0001852e+04
5.0270009e+04   5.0290932e+04   5.0312139e+04   5.0333462e+04   5.0354729e+04   5.0375759e+04   5.0396374e+04   5.0416397e+04   5.0435660e+04   5.0454009e+04   5.0471302e+04   5.0487419e+04   5.0502263e+04   5.0515760e+04   5.0527864e+04   5.0538555e+04   5.0547841e+04   5.0555756e+04   5.0562357e+04   5.0567725e+04   5.0571956e+04   5.0575163e+04   5.0577469e+04   5.0579003e+04   5.0579897e+04   5.0580278e+04   5.0580267e+04   5.0579976e+04   5.0579501e+04   5.0578924e+04   5.0578307e+04   5.0577693e+04   5.0577104e+04   5.0576543e+04   5.0575994e+04   5.0575422e+04   5.0574777e+04   5.0573996e+04   5.0573005e+04   5.0571723e+04   5.0570063e+04   5.0567939e+04   5.0565267e+04   5.0561965e+04   5.0557962e+04   5.0553196e+04   5.0547615e+04   5.0541182e+04   5.0533874e+04   5.0525683e+04   5.0516615e+04   5.0506691e+04   5.0495945e+04   5.0484425e+04   5.0472188e+04   5.0459302e+04   5.0445842e+04   5.0431887e+04   5.0417521e+04   5.0402831e+04   5.0387901e+04   5.0372816e+04   5.0357656e+04   5.0342497e+04   5.0327411e+04   5.0312463e+04   5.0297711e+04   5.0283206e+04   5.0268995e+04   5.0255114e+04   5.0241596e+04   5.0228466e+04   5.0215746e+04   5.0203449e+04   5.0191587e+04   5.0180166e+04   5.0169191e+04   5.0158663e+04   5.0148579e+04   5.0138936e+04   5.0129731e+04   5.0120956e+04   5.0112605e+04   5.0104671e+04   5.0097144e+04   5.0090015e+04   5.0083276e+04   5.0076917e+04   5.0070927e+04   5.0065296e+04   5.0060012e+04   5.0055065e+04   5.0050442e+04   5.0046132e+04   5.0042123e+04   5.0038400e+04   5.0034953e+04   5.0031767e+04   5.0028830e+04   5.0026128e+04   5.0023648e+04   5.0021378e+04   5.0019303e+04   5.0017412e+04   5.0015692e+04   5.0014131e+04   5.0012718e+04   5.0011440e+04   5.0010288e+04   5.0009251e+04   5.0008319e+04   5.0007484e+04   5.0006736e+04   5.0006067e+04   5.0005470e+04   5.0004938e+04   5.0004465e+04   5.0004044e+04   5.0003670e+04   5.0003338e+04   5.0003044e+04   5.0002782e+04   5.0002551e+04   5.0002345e+04   5.0002162e+04   5.0002000e+04   5.0001856e+04   5.0001727e+04   5.0001612e+04
5.0252231e+04   5.0271727e+04   5.0291483e+04   5.0311343e+04   5.0331146e+04   5.0350724e+04   5.0369911e+04   5.0388541e+04   5.0406458e+04   5.0423516e+04   5.0439583e+04   5.0454548e+04   5.0468318e+04   5.0480823e+04   5.0492019e+04   5.0501886e+04   5.0510429e+04   5.0517679e+04   5.0523687e+04   5.0528524e+04   5.0532280e+04   5.0535058e+04   5.0536970e+04   5.0538134e+04   5.0538670e+04   5.0538698e+04   5.0538328e+04   5.0537665e+04   5.0536799e+04   5.0535805e+04   5.0534746e+04   5.0533662e+04   5.0532578e+04   5.0531502e+04   5.0530422e+04   5.0529312e+04   5.0528133e+04   5.0526831e+04   5.0525346e+04   5.0523608e+04   5.0521545e+04   5.0519084e+04   5.0516152e+04   5.0512681e+04   5.0508609e+04   5.0503884e+04   5.0498460e+04   5.0492307e+04   5.0485404e+04   5.0477744e+04   5.0469331e+04   5.0460184e+04   5.0450331e+04   5.0439812e+04   5.0428676e+04   5.0416980e+04   5.0404788e+04   5.0392168e+04   5.0379192e+04   5.0365933e+04   5.0352464e+04   5.0338857e+04   5.0325182e+04   5.0311505e+04   5.0297887e+04   5.0284386e+04   5.0271053e+04   5.0257934e+04   5.0245068e+04   5.0232491e+04   5.0220230e+04   5.0208312e+04   5.0196753e+04   5.0185570e+04   5.0174773e+04   5.0164370e+04   5.0154366e+04   5.0144763e+04   5.0135560e+04   5.0126757e+04   5.0118350e+04   5.0110335e+04   5.0102705e+04   5.0095455e+04   5.0088577e+04   5.0082065e+04   5.0075908e+04   5.0070100e+04   5.0064629e+04   5.0059488e+04   5.0054665e+04   5.0050150e+04   5.0045932e+04   5.0042001e+04   5.0038343e+04   5.0034949e+04   5.0031806e+04   5.0028901e+04   5.0026223e+04   5.0023760e+04   5.0021500e+04   5.0019430e+04   5.0017538e+04   5.0015814e+04   5.0014245e+04   5.0012822e+04   5.0011532e+04   5.0010366e+04   5.0009315e+04   5.0008368e+04   5.0007518e+04   5.0006755e+04   5.0006072e+04   5.0005461e+04   5.0004916e+04   5.0004431e+04   5.0003998e+04   5.0003614e+04   5.0003273e+04   5.0002970e+04   5.0002702e+04   5.0002464e+04   5.0002253e+04   5.0002066e+04   5.0001900e+04   5.0001753e+04   5.0001622e+04   5.0001506e+04   5.0001402e+04
5.0234870e+04   5.0252978e+04   5.0271323e+04   5.0289763e+04   5.0308147e+04   5.0326319e+04   5.0344123e+04   5.0361408e+04   5.0378027e+04   5.0393843e+04   5.0408736e+04   5.0422598e+04   5.0435345e+04   5.0446910e+04   5.0457250e+04   5.0466347e+04   5.0474203e+04   5.0480844e+04   5.0486316e+04   5.0490685e+04   5.0494030e+04   5.0496445e+04   5.0498032e+04   5.0498900e+04   5.0499159e+04   5.0498917e+04   5.0498277e+04   5.0497335e+04   5.0496175e+04   5.0494870e+04   5.0493476e+04   5.0492034e+04   5.0490571e+04   5.0489097e+04   5.0487606e+04   5.0486078e+04   5.0484482e+04   5.0482774e+04   5.0480905e+04   5.0478817e+04   5.0476449e+04   5.0473739e+04   5.0470626e+04   5.0467052e+04   5.0462965e+04   5.0458319e+04   5.0453078e+04   5.0447213e+04   5.0440709e+04   5.0433557e+04   5.0425763e+04   5.0417341e+04   5.0408315e+04   5.0398719e+04   5.0388594e+04   5.0377989e+04   5.0366957e+04   5.0355557e+04   5.0343849e+04   5.0331895e+04   5.0319759e+04   5.0307502e+04   5.0295184e+04   5.0282862e+04   5.0270588e+04   5.0258414e+04   5.0246383e+04   5.0234537e+04   5.0222910e+04   5.0211534e+04   5.0200435e+04   5.0189635e+04   5.0179153e+04   5.0169002e+04   5.0159194e+04   5.0149737e+04   5.0140636e+04   5.0131894e+04   5.0123513e+04   5.0115491e+04   5.0107828e+04   5.0100519e+04   5.0093560e+04   5.0086947e+04   5.0080673e+04   5.0074732e+04   5.0069117e+04   5.0063819e+04   5.0058830e+04   5.0054141e+04   5.0049744e+04   5.0045628e+04   5.0041784e+04   5.0038201e+04   5.0034869e+04   5.0031777e+04   5.0028913e+04   5.0026268e+04   5.0023829e+04   5.0021585e+04   5.0019526e+04   5.0017641e+04   5.0015918e+04   5.0014347e+04   5.0012918e+04   5.0011621e+04   5.0010446e+04   5.0009383e+04   5.0008425e+04   5.0007562e+04   5.0006786e+04   5.0006091e+04   5.0005468e+04   5.0004911e+04   5.0004414e+04   5.0003972e+04   5.0003578e+04   5.0003227e+04   5.0002917e+04   5.0002641e+04   5.0002397e+04   5.0002180e+04   5.0001988e+04   5.0001819e+04   5.0001668e+04   5.0001535e+04   5.0001417e+04   5.0001312e+04   5.0001218e+04
5.0218010e+04   5.0234774e+04   5.0251757e+04   5.0268825e+04   5.0285839e+04   5.0302656e+04   5.0319130e+04   5.0335122e+04   5.0350494e+04   5.0365122e+04   5.0378892e+04   5.0391704e+04   5.0403480e+04   5.0414157e+04   5.0423694e+04   5.0432072e+04   5.0439293e+04   5.0445379e+04   5.0450370e+04   5.0454325e+04   5.0457317e+04   5.0459430e+04   5.0460756e+04   5.0461395e+04   5.0461446e+04   5.0461009e+04   5.0460179e+04   5.0459042e+04   5.0457678e+04   5.0456154e+04   5.0454523e+04   5.0452825e+04   5.0451087e+04   5.0449322e+04   5.0447527e+04   5.0445689e+04   5.0443784e+04   5.0441776e+04   5.0439624e+04   5.0437281e+04   5.0434696e+04   5.0431817e+04   5.0428593e+04   5.0424976e+04   5.0420920e+04   5.0416388e+04   5.0411349e+04   5.0405779e+04   5.0399664e+04   5.0392998e+04   5.0385785e+04   5.0378036e+04   5.0369773e+04   5.0361023e+04   5.0351821e+04   5.0342209e+04   5.0332232e+04   5.0321939e+04   5.0311381e+04   5.0300613e+04   5.0289686e+04   5.0278654e+04   5.0267568e+04   5.0256476e+04   5.0245426e+04   5.0234460e+04   5.0223618e+04   5.0212934e+04   5.0202441e+04   5.0192167e+04   5.0182134e+04   5.0172364e+04   5.0162873e+04   5.0153674e+04   5.0144780e+04   5.0136197e+04   5.0127932e+04   5.0119989e+04   5.0112369e+04   5.0105073e+04   5.0098100e+04   5.0091447e+04   5.0085112e+04   5.0079090e+04   5.0073377e+04   5.0067966e+04   5.0062852e+04   5.0058027e+04   5.0053484e+04   5.0049215e+04   5.0045211e+04   5.0041464e+04   5.0037965e+04   5.0034704e+04   5.0031672e+04   5.0028858e+04   5.0026252e+04   5.0023845e+04   5.0021626e+04   5.0019585e+04   5.0017712e+04   5.0015997e+04   5.0014429e+04   5.0013000e+04   5.0011700e+04   5.0010519e+04   5.0009450e+04   5.0008483e+04   5.0007611e+04   5.0006825e+04   5.0006119e+04   5.0005486e+04   5.0004919e+04   5.0004412e+04   5.0003960e+04   5.0003557e+04   5.0003198e+04   5.0002880e+04   5.0002597e+04   5.0002346e+04   5.0002124e+04   5.0001928e+04   5.0001754e+04   5.0001600e+04   5.0001464e+04   5.0001343e+04   5.0001237e+04   5.0001142e+04   5.0001058e+04
5.0201724e+04   5.0217197e+04   5.0232869e+04   5.0248619e+04   5.0264319e+04   5.0279835e+04   5.0295035e+04   5.0309788e+04   5.0323970e+04   5.0337464e+04   5.0350165e+04   5.0361981e+04   5.0372838e+04   5.0382678e+04   5.0391462e+04   5.0399172e+04   5.0405808e+04   5.0411388e+04   5.0415948e+04   5.0419541e+04   5.0422231e+04   5.0424095e+04   5.0425216e+04   5.0425684e+04   5.0425590e+04   5.0425024e+04   5.0424072e+04   5.0422814e+04   5.0421323e+04   5.0419661e+04   5.0417878e+04   5.0416014e+04   5.0414094e+04   5.0412131e+04   5.0410129e+04   5.0408077e+04   5.0405958e+04   5.0403742e+04   5.0401398e+04   5.0398885e+04   5.0396161e+04   5.0393184e+04   5.0389911e+04   5.0386302e+04   5.0382318e+04   5.0377929e+04   5.0373107e+04   5.0367834e+04   5.0362098e+04   5.0355893e+04   5.0349223e+04   5.0342098e+04   5.0334535e+04   5.0326558e+04   5.0318196e+04   5.0309485e+04   5.0300463e+04   5.0291170e+04   5.0281652e+04   5.0271952e+04   5.0262117e+04   5.0252191e+04   5.0242218e+04   5.0232240e+04   5.0222298e+04   5.0212428e+04   5.0202664e+04   5.0193038e+04   5.0183578e+04   5.0174308e+04   5.0165250e+04   5.0156422e+04   5.0147840e+04   5.0139517e+04   5.0131463e+04   5.0123686e+04   5.0116193e+04   5.0108987e+04   5.0102071e+04   5.0095446e+04   5.0089111e+04   5.0083067e+04   5.0077309e+04   5.0071835e+04   5.0066641e+04   5.0061722e+04   5.0057072e+04   5.0052685e+04   5.0048554e+04   5.0044673e+04   5.0041033e+04   5.0037628e+04   5.0034447e+04   5.0031484e+04   5.0028728e+04   5.0026171e+04   5.0023803e+04   5.0021616e+04   5.0019601e+04   5.0017746e+04   5.0016044e+04   5.0014486e+04   5.0013062e+04   5.0011763e+04   5.0010582e+04   5.0009509e+04   5.0008537e+04   5.0007659e+04   5.0006866e+04   5.0006152e+04   5.0005510e+04   5.0004935e+04   5.0004420e+04   5.0003959e+04   5.0003548e+04   5.0003182e+04   5.0002856e+04   5.0002567e+04   5.0002310e+04   5.0002083e+04   5.0001882e+04   5.0001703e+04   5.0001546e+04   5.0001407e+04   5.0001284e+04   5.0001175e+04   5.0001079e+04   5.0000993e+04   5.0000918e+04
5.0186077e+04   5.0200312e+04   5.0214730e+04   5.0229220e+04   5.0243663e+04   5.0257938e+04   5.0271922e+04   5.0285496e+04   5.0298545e+04   5.0310962e+04   5.0322649e+04   5.0333523e+04   5.0343513e+04   5.0352567e+04   5.0360648e+04   5.0367737e+04   5.0373834e+04   5.0378954e+04   5.0383128e+04   5.0386403e+04   5.0388838e+04   5.0390499e+04   5.0391463e+04   5.0391811e+04   5.0391623e+04   5.0390983e+04   5.0389968e+04   5.0388651e+04   5.0387099e+04   5.0385370e+04   5.0383509e+04   5.0381554e+04   5.0379530e+04   5.0377453e+04   5.0375325e+04   5.0373143e+04   5.0370891e+04   5.0368549e+04   5.0366089e+04   5.0363480e+04   5.0360686e+04   5.0357672e+04   5.0354403e+04   5.0350845e+04   5.0346968e+04   5.0342744e+04   5.0338152e+04   5.0333176e+04   5.0327806e+04   5.0322038e+04   5.0315875e+04   5.0309325e+04   5.0302404e+04   5.0295131e+04   5.0287532e+04   5.0279635e+04   5.0271473e+04   5.0263082e+04   5.0254499e+04   5.0245761e+04   5.0236908e+04   5.0227977e+04   5.0219007e+04   5.0210033e+04   5.0201089e+04   5.0192209e+04   5.0183421e+04   5.0174753e+04   5.0166230e+04   5.0157874e+04   5.0149703e+04   5.0141735e+04   5.0133984e+04   5.0126462e+04   5.0119179e+04   5.0112142e+04   5.0105358e+04   5.0098831e+04   5.0092564e+04   5.0086558e+04   5.0080814e+04   5.0075331e+04   5.0070107e+04   5.0065140e+04   5.0060426e+04   5.0055961e+04   5.0051740e+04   5.0047758e+04   5.0044009e+04   5.0040487e+04   5.0037184e+04   5.0034093e+04   5.0031207e+04   5.0028517e+04   5.0026017e+04   5.0023697e+04   5.0021550e+04   5.0019566e+04   5.0017737e+04   5.0016055e+04   5.0014511e+04   5.0013098e+04   5.0011806e+04   5.0010628e+04   5.0009556e+04   5.0008583e+04   5.0007702e+04   5.0006905e+04   5.0006185e+04   5.0005538e+04   5.0004956e+04   5.0004433e+04   5.0003966e+04   5.0003548e+04   5.0003175e+04   5.0002843e+04   5.0002548e+04   5.0002286e+04   5.0002053e+04   5.0001847e+04   5.0001665e+04   5.0001504e+04   5.0001362e+04   5.0001236e+04   5.0001125e+04   5.0001027e+04   5.0000940e+04   5.0000864e+04   5.0000796e+04
5.0171118e+04   5.0184174e+04   5.0197399e+04   5.0210690e+04   5.0223938e+04   5.0237032e+04   5.0249862e+04   5.0262317e+04   5.0274292e+04   5.0285689e+04   5.0296418e+04   5.0306403e+04   5.0315579e+04   5.0323897e+04   5.0331321e+04   5.0337835e+04   5.0343436e+04   5.0348137e+04   5.0351966e+04   5.0354963e+04   5.0357180e+04   5.0358679e+04   5.0359526e+04   5.0359794e+04   5.0359557e+04   5.0358888e+04   5.0357859e+04   5.0356535e+04   5.0354977e+04   5.0353237e+04   5.0351359e+04   5.0349377e+04   5.0347316e+04   5.0345191e+04   5.0343009e+04   5.0340766e+04   5.0338452e+04   5.0336051e+04   5.0333542e+04   5.0330897e+04   5.0328090e+04   5.0325091e+04   5.0321871e+04   5.0318401e+04   5.0314658e+04   5.0310617e+04   5.0306263e+04   5.0301581e+04   5.0296564e+04   5.0291209e+04   5.0285518e+04   5.0279499e+04   5.0273165e+04   5.0266533e+04   5.0259623e+04   5.0252462e+04   5.0245076e+04   5.0237495e+04   5.0229751e+04   5.0221877e+04   5.0213904e+04   5.0205867e+04   5.0197797e+04   5.0189725e+04   5.0181681e+04   5.0173692e+04   5.0165785e+04   5.0157983e+04   5.0150308e+04   5.0142780e+04   5.0135415e+04   5.0128230e+04   5.0121236e+04   5.0114445e+04   5.0107867e+04   5.0101508e+04   5.0095374e+04   5.0089471e+04   5.0083800e+04   5.0078364e+04   5.0073164e+04   5.0068199e+04   5.0063467e+04   5.0058968e+04   5.0054697e+04   5.0050651e+04   5.0046827e+04   5.0043219e+04   5.0039822e+04   5.0036630e+04   5.0033638e+04   5.0030838e+04   5.0028223e+04   5.0025787e+04   5.0023523e+04   5.0021422e+04   5.0019477e+04   5.0017680e+04   5.0016024e+04   5.0014501e+04   5.0013103e+04   5.0011823e+04   5.0010653e+04   5.0009587e+04   5.0008616e+04   5.0007735e+04   5.0006937e+04   5.0006215e+04   5.0005564e+04   5.0004977e+04   5.0004450e+04   5.0003977e+04   5.0003554e+04   5.0003176e+04   5.0002838e+04   5.0002538e+04   5.0002271e+04   5.0002034e+04   5.0001823e+04   5.0001637e+04   5.0001472e+04   5.0001327e+04   5.0001198e+04   5.0001085e+04   5.0000985e+04   5.0000897e+04   5.0000819e+04   5.0000750e+04   5.0000689e+04
5.0156887e+04   5.0168827e+04   5.0180920e+04   5.0193075e+04   5.0205191e+04   5.0217169e+04   5.0228907e+04   5.0240305e+04   5.0251266e+04   5.0261701e+04   5.0271529e+04   5.0280679e+04   5.0289091e+04   5.0296719e+04   5.0303533e+04   5.0309513e+04   5.0314658e+04   5.0318978e+04   5.0322497e+04   5.0325250e+04   5.0327284e+04   5.0328653e+04   5.0329416e+04   5.0329638e+04   5.0329386e+04   5.0328725e+04   5.0327719e+04   5.0326429e+04   5.0324908e+04   5.0323204e+04   5.0321357e+04   5.0319400e+04   5.0317356e+04   5.0315240e+04   5.0313059e+04   5.0310813e+04   5.0308494e+04   5.0306091e+04   5.0303586e+04   5.0300958e+04   5.0298185e+04   5.0295242e+04   5.0292106e+04   5.0288755e+04   5.0285166e+04   5.0281323e+04   5.0277211e+04   5.0272819e+04   5.0268141e+04   5.0263175e+04   5.0257924e+04   5.0252394e+04   5.0246597e+04   5.0240547e+04   5.0234262e+04   5.0227763e+04   5.0221075e+04   5.0214222e+04   5.0207232e+04   5.0200131e+04   5.0192949e+04   5.0185712e+04   5.0178449e+04   5.0171187e+04   5.0163950e+04   5.0156764e+04   5.0149649e+04   5.0142628e+04   5.0135720e+04   5.0128941e+04   5.0122307e+04   5.0115832e+04   5.0109527e+04   5.0103403e+04   5.0097467e+04   5.0091728e+04   5.0086189e+04   5.0080857e+04   5.0075734e+04   5.0070821e+04   5.0066121e+04   5.0061632e+04   5.0057353e+04   5.0053284e+04   5.0049422e+04   5.0045763e+04   5.0042304e+04   5.0039041e+04   5.0035969e+04   5.0033082e+04   5.0030376e+04   5.0027844e+04   5.0025480e+04   5.0023277e+04   5.0021230e+04   5.0019330e+04   5.0017572e+04   5.0015948e+04   5.0014451e+04   5.0013074e+04   5.0011811e+04   5.0010654e+04   5.0009596e+04   5.0008632e+04   5.0007755e+04   5.0006959e+04   5.0006238e+04   5.0005585e+04   5.0004997e+04   5.0004467e+04   5.0003990e+04   5.0003563e+04   5.0003181e+04   5.0002839e+04   5.0002534e+04   5.0002263e+04   5.0002021e+04   5.0001807e+04   5.0001617e+04   5.0001449e+04   5.0001301e+04   5.0001170e+04   5.0001054e+04   5.0000952e+04   5.0000862e+04   5.0000783e+04   5.0000713e+04   5.0000651e+04   5.0000597e+04
5.0143414e+04   5.0154299e+04   5.0165326e+04   5.0176409e+04   5.0187459e+04   5.0198385e+04   5.0209095e+04   5.0219497e+04   5.0229505e+04   5.0239037e+04   5.0248019e+04   5.0256385e+04   5.0264083e+04   5.0271069e+04   5.0277314e+04   5.0282800e+04   5.0287526e+04   5.0291498e+04   5.0294738e+04   5.0297277e+04   5.0299155e+04   5.0300420e+04   5.0301126e+04   5.0301329e+04   5.0301088e+04   5.0300463e+04   5.0299510e+04   5.0298284e+04   5.0296834e+04   5.0295202e+04   5.0293425e+04   5.0291533e+04   5.0289547e+04   5.0287483e+04   5.0285349e+04   5.0283145e+04   5.0280868e+04   5.0278507e+04   5.0276050e+04   5.0273479e+04   5.0270777e+04   5.0267924e+04   5.0264901e+04   5.0261690e+04   5.0258273e+04   5.0254636e+04   5.0250767e+04   5.0246659e+04   5.0242305e+04   5.0237707e+04   5.0232864e+04   5.0227785e+04   5.0222479e+04   5.0216958e+04   5.0211239e+04   5.0205339e+04   5.0199278e+04   5.0193079e+04   5.0186764e+04   5.0180358e+04   5.0173883e+04   5.0167364e+04   5.0160825e+04   5.0154289e+04   5.0147777e+04   5.0141311e+04   5.0134911e+04   5.0128594e+04   5.0122377e+04   5.0116275e+04   5.0110303e+04   5.0104471e+04   5.0098792e+04   5.0093273e+04   5.0087923e+04   5.0082749e+04   5.0077754e+04   5.0072945e+04   5.0068322e+04   5.0063890e+04   5.0059647e+04   5.0055595e+04   5.0051733e+04   5.0048060e+04   5.0044573e+04   5.0041269e+04   5.0038147e+04   5.0035201e+04   5.0032427e+04   5.0029822e+04   5.0027379e+04   5.0025093e+04   5.0022960e+04   5.0020972e+04   5.0019124e+04   5.0017410e+04   5.0015824e+04   5.0014359e+04   5.0013008e+04   5.0011766e+04   5.0010626e+04   5.0009583e+04   5.0008629e+04   5.0007759e+04   5.0006968e+04   5.0006250e+04   5.0005599e+04   5.0005011e+04   5.0004480e+04   5.0004002e+04   5.0003572e+04   5.0003187e+04   5.0002842e+04   5.0002534e+04   5.0002259e+04   5.0002014e+04   5.0001797e+04   5.0001604e+04   5.0001433e+04   5.0001282e+04   5.0001148e+04   5.0001030e+04   5.0000926e+04   5.0000835e+04   5.0000754e+04   5.0000683e+04   5.0000620e+04   5.0000565e+04   5.0000517e+04
5.0130717e+04   5.0140612e+04   5.0150636e+04   5.0160713e+04   5.0170763e+04   5.0180702e+04   5.0190447e+04   5.0199917e+04   5.0209032e+04   5.0217718e+04   5.0225908e+04   5.0233543e+04   5.0240574e+04   5.0246961e+04   5.0252678e+04   5.0257708e+04   5.0262047e+04   5.0265702e+04   5.0268691e+04   5.0271040e+04   5.0272785e+04   5.0273967e+04   5.0274635e+04   5.0274838e+04   5.0274628e+04   5.0274059e+04   5.0273181e+04   5.0272042e+04   5.0270686e+04   5.0269152e+04   5.0267473e+04   5.0265675e+04   5.0263780e+04   5.0261802e+04   5.0259749e+04   5.0257623e+04   5.0255421e+04   5.0253138e+04   5.0250762e+04   5.0248280e+04   5.0245678e+04   5.0242940e+04   5.0240051e+04   5.0236996e+04   5.0233762e+04   5.0230336e+04   5.0226710e+04   5.0222877e+04   5.0218834e+04   5.0214580e+04   5.0210119e+04   5.0205456e+04   5.0200599e+04   5.0195561e+04   5.0190354e+04   5.0184994e+04   5.0179499e+04   5.0173888e+04   5.0168180e+04   5.0162395e+04   5.0156555e+04   5.0150680e+04   5.0144790e+04   5.0138905e+04   5.0133044e+04   5.0127226e+04   5.0121467e+04   5.0115784e+04   5.0110191e+04   5.0104701e+04   5.0099327e+04   5.0094079e+04   5.0088966e+04   5.0083998e+04   5.0079181e+04   5.0074521e+04   5.0070022e+04   5.0065690e+04   5.0061525e+04   5.0057531e+04   5.0053708e+04   5.0050057e+04   5.0046576e+04   5.0043266e+04   5.0040123e+04   5.0037146e+04   5.0034332e+04   5.0031678e+04   5.0029179e+04   5.0026831e+04   5.0024630e+04   5.0022571e+04   5.0020649e+04   5.0018859e+04   5.0017195e+04   5.0015651e+04   5.0014223e+04   5.0012903e+04   5.0011687e+04   5.0010569e+04   5.0009543e+04   5.0008603e+04   5.0007745e+04   5.0006962e+04   5.0006250e+04   5.0005603e+04   5.0005017e+04   5.0004488e+04   5.0004010e+04   5.0003579e+04   5.0003193e+04   5.0002846e+04   5.0002536e+04   5.0002258e+04   5.0002011e+04   5.0001791e+04   5.0001596e+04   5.0001422e+04   5.0001268e+04   5.0001133e+04   5.0001013e+04   5.0000907e+04   5.0000813e+04   5.0000731e+04   5.0000659e+04   5.0000595e+04   5.0000539e+04   5.0000490e+04   5.0000447e+04
5.0118805e+04   5.0127773e+04   5.0136860e+04   5.0145997e+04   5.0155111e+04   5.0164128e+04   5.0172973e+04   5.0181571e+04   5.0189853e+04   5.0197750e+04   5.0205202e+04   5.0212155e+04   5.0218566e+04   5.0224397e+04   5.0229624e+04   5.0234231e+04   5.0238215e+04   5.0241579e+04   5.0244340e+04   5.0246520e+04   5.0248149e+04   5.0249266e+04   5.0249910e+04   5.0250127e+04   5.0249962e+04   5.0249462e+04   5.0248673e+04   5.0247636e+04   5.0246390e+04   5.0244972e+04   5.0243409e+04   5.0241728e+04   5.0239946e+04   5.0238078e+04   5.0236130e+04   5.0234107e+04   5.0232008e+04   5.0229827e+04   5.0227557e+04   5.0225187e+04   5.0222707e+04   5.0220103e+04   5.0217363e+04   5.0214475e+04   5.0211430e+04   5.0208217e+04   5.0204830e+04   5.0201263e+04   5.0197516e+04   5.0193587e+04   5.0189480e+04   5.0185201e+04   5.0180757e+04   5.0176158e+04   5.0171416e+04   5.0166545e+04   5.0161561e+04   5.0156479e+04   5.0151316e+04   5.0146091e+04   5.0140820e+04   5.0135522e+04   5.0130215e+04   5.0124915e+04   5.0119639e+04   5.0114403e+04   5.0109222e+04   5.0104110e+04   5.0099079e+04   5.0094141e+04   5.0089308e+04   5.0084588e+04   5.0079990e+04   5.0075521e+04   5.0071188e+04   5.0066996e+04   5.0062949e+04   5.0059051e+04   5.0055304e+04   5.0051710e+04   5.0048271e+04   5.0044985e+04   5.0041854e+04   5.0038876e+04   5.0036049e+04   5.0033371e+04   5.0030840e+04   5.0028452e+04   5.0026204e+04   5.0024093e+04   5.0022114e+04   5.0020263e+04   5.0018535e+04   5.0016926e+04   5.0015430e+04   5.0014043e+04   5.0012759e+04   5.0011573e+04   5.0010480e+04   5.0009475e+04   5.0008553e+04   5.0007709e+04   5.0006938e+04   5.0006235e+04   5.0005595e+04   5.0005014e+04   5.0004488e+04   5.0004012e+04   5.0003583e+04   5.0003196e+04   5.0002849e+04   5.0002538e+04   5.0002259e+04   5.0002010e+04   5.0001788e+04   5.0001590e+04   5.0001415e+04   5.0001259e+04   5.0001121e+04   5.0001000e+04   5.0000892e+04   5.0000797e+04   5.0000713e+04   5.0000640e+04   5.0000575e+04   5.0000518e+04   5.0000468e+04   5.0000425e+04   5.0000386e+04
5.0107677e+04   5.0115783e+04   5.0123998e+04   5.0132259e+04   5.0140503e+04   5.0148661e+04   5.0156668e+04   5.0164456e+04   5.0171962e+04   5.0179125e+04   5.0185891e+04   5.0192211e+04   5.0198045e+04   5.0203361e+04   5.0208134e+04   5.0212351e+04   5.0216006e+04   5.0219104e+04   5.0221657e+04   5.0223685e+04   5.0225213e+04   5.0226275e+04   5.0226907e+04   5.0227146e+04   5.0227034e+04   5.0226612e+04   5.0225919e+04   5.0224992e+04   5.0223867e+04   5.0222575e+04   5.0221142e+04   5.0219589e+04   5.0217935e+04   5.0216192e+04   5.0214368e+04   5.0212466e+04   5.0210486e+04   5.0208426e+04   5.0206279e+04   5.0204038e+04   5.0201693e+04   5.0199235e+04   5.0196654e+04   5.0193941e+04   5.0191087e+04   5.0188086e+04   5.0184932e+04   5.0181622e+04   5.0178155e+04   5.0174531e+04   5.0170755e+04   5.0166830e+04   5.0162765e+04   5.0158567e+04   5.0154249e+04   5.0149822e+04   5.0145299e+04   5.0140694e+04   5.0136023e+04   5.0131301e+04   5.0126542e+04   5.0121763e+04   5.0116980e+04   5.0112206e+04   5.0107456e+04   5.0102744e+04   5.0098083e+04   5.0093485e+04   5.0088962e+04   5.0084523e+04   5.0080178e+04   5.0075935e+04   5.0071803e+04   5.0067787e+04   5.0063893e+04   5.0060126e+04   5.0056490e+04   5.0052988e+04   5.0049621e+04   5.0046393e+04   5.0043303e+04   5.0040352e+04   5.0037539e+04   5.0034864e+04   5.0032325e+04   5.0029921e+04   5.0027648e+04   5.0025505e+04   5.0023487e+04   5.0021592e+04   5.0019816e+04   5.0018155e+04   5.0016605e+04   5.0015161e+04   5.0013819e+04   5.0012574e+04   5.0011423e+04   5.0010359e+04   5.0009379e+04   5.0008478e+04   5.0007652e+04   5.0006895e+04   5.0006203e+04   5.0005573e+04   5.0004999e+04   5.0004478e+04   5.0004007e+04   5.0003580e+04   5.0003196e+04   5.0002849e+04   5.0002538e+04   5.0002259e+04   5.0002009e+04   5.0001786e+04   5.0001587e+04   5.0001410e+04   5.0001253e+04   5.0001114e+04   5.0000990e+04   5.0000881e+04   5.0000785e+04   5.0000700e+04   5.0000625e+04   5.0000560e+04   5.0000502e+04   5.0000451e+04   5.0000407e+04   5.0000368e+04   5.0000333e+04
5.0097326e+04   5.0104633e+04   5.0112038e+04   5.0119488e+04   5.0126924e+04   5.0134287e+04   5.0141517e+04   5.0148554e+04   5.0155341e+04   5.0161824e+04   5.0167954e+04   5.0173688e+04   5.0178988e+04   5.0183826e+04   5.0188179e+04   5.0192035e+04   5.0195387e+04   5.0198240e+04   5.0200603e+04   5.0202492e+04   5.0203931e+04   5.0204947e+04   5.0205572e+04   5.0205839e+04   5.0205784e+04   5.0205442e+04   5.0204848e+04   5.0204036e+04   5.0203035e+04   5.0201874e+04   5.0200575e+04   5.0199159e+04   5.0197641e+04   5.0196032e+04   5.0194341e+04   5.0192571e+04   5.0190722e+04   5.0188794e+04   5.0186781e+04   5.0184679e+04   5.0182479e+04   5.0180174e+04   5.0177757e+04   5.0175221e+04   5.0172559e+04   5.0169766e+04   5.0166838e+04   5.0163774e+04   5.0160573e+04   5.0157236e+04   5.0153766e+04   5.0150170e+04   5.0146452e+04   5.0142623e+04   5.0138691e+04   5.0134666e+04   5.0130561e+04   5.0126389e+04   5.0122161e+04   5.0117892e+04   5.0113595e+04   5.0109284e+04   5.0104972e+04   5.0100671e+04   5.0096395e+04   5.0092155e+04   5.0087963e+04   5.0083829e+04   5.0079763e+04   5.0075775e+04   5.0071871e+04   5.0068061e+04   5.0064350e+04   5.0060745e+04   5.0057249e+04   5.0053868e+04   5.0050605e+04   5.0047462e+04   5.0044442e+04   5.0041546e+04   5.0038774e+04   5.0036127e+04   5.0033605e+04   5.0031207e+04   5.0028931e+04   5.0026776e+04   5.0024739e+04   5.0022818e+04   5.0021010e+04   5.0019313e+04   5.0017722e+04   5.0016234e+04   5.0014846e+04   5.0013553e+04   5.0012352e+04   5.0011238e+04   5.0010207e+04   5.0009255e+04   5.0008378e+04   5.0007572e+04   5.0006832e+04   5.0006155e+04   5.0005536e+04   5.0004972e+04   5.0004459e+04   5.0003993e+04   5.0003571e+04   5.0003189e+04   5.0002845e+04   5.0002535e+04   5.0002257e+04   5.0002007e+04   5.0001784e+04   5.0001585e+04   5.0001407e+04   5.0001249e+04   5.0001108e+04   5.0000984e+04   5.0000873e+04   5.0000776e+04   5.0000690e+04   5.0000614e+04   5.0000548e+04   5.0000489e+04   5.0000438e+04   5.0000392e+04   5.0000353e+04   5.0000318e+04   5.0000288e+04
5.0087738e+04   5.0094305e+04   5.0100963e+04   5.0107664e+04   5.0114355e+04   5.0120983e+04   5.0127495e+04   5.0133838e+04   5.0139961e+04   5.0145816e+04   5.0151358e+04   5.0156550e+04   5.0161357e+04   5.0165753e+04   5.0169718e+04   5.0173240e+04   5.0176313e+04   5.0178939e+04   5.0181127e+04   5.0182890e+04   5.0184247e+04   5.0185223e+04   5.0185845e+04   5.0186141e+04   5.0186143e+04   5.0185882e+04   5.0185387e+04   5.0184687e+04   5.0183810e+04   5.0182780e+04   5.0181617e+04   5.0180338e+04   5.0178959e+04   5.0177489e+04   5.0175935e+04   5.0174302e+04   5.0172591e+04   5.0170801e+04   5.0168928e+04   5.0166969e+04   5.0164918e+04   5.0162770e+04   5.0160519e+04   5.0158159e+04   5.0155686e+04   5.0153096e+04   5.0150386e+04   5.0147556e+04   5.0144606e+04   5.0141538e+04   5.0138355e+04   5.0135062e+04   5.0131665e+04   5.0128173e+04   5.0124593e+04   5.0120935e+04   5.0117210e+04   5.0113429e+04   5.0109603e+04   5.0105744e+04   5.0101864e+04   5.0097974e+04   5.0094087e+04   5.0090213e+04   5.0086364e+04   5.0082549e+04   5.0078780e+04   5.0075065e+04   5.0071412e+04   5.0067831e+04   5.0064327e+04   5.0060908e+04   5.0057578e+04   5.0054344e+04   5.0051210e+04   5.0048179e+04   5.0045254e+04   5.0042437e+04   5.0039731e+04   5.0037137e+04   5.0034655e+04   5.0032285e+04   5.0030027e+04   5.0027880e+04   5.0025843e+04   5.0023915e+04   5.0022093e+04   5.0020375e+04   5.0018758e+04   5.0017240e+04   5.0015818e+04   5.0014488e+04   5.0013247e+04   5.0012092e+04   5.0011018e+04   5.0010023e+04   5.0009102e+04   5.0008252e+04   5.0007469e+04   5.0006749e+04   5.0006088e+04   5.0005483e+04   5.0004931e+04   5.0004427e+04   5.0003969e+04   5.0003553e+04   5.0003176e+04   5.0002836e+04   5.0002529e+04   5.0002252e+04   5.0002004e+04   5.0001781e+04   5.0001582e+04   5.0001404e+04   5.0001245e+04   5.0001104e+04   5.0000979e+04   5.0000868e+04   5.0000769e+04   5.0000682e+04   5.0000606e+04   5.0000538e+04   5.0000479e+04   5.0000427e+04   5.0000381e+04   5.0000341e+04   5.0000306e+04   5.0000275e+04   5.0000248e+04
5.0078889e+04   5.0084778e+04   5.0090749e+04   5.0096760e+04   5.0102765e+04   5.0108717e+04   5.0114568e+04   5.0120273e+04   5.0125784e+04   5.0131060e+04   5.0136062e+04   5.0140753e+04   5.0145105e+04   5.0149094e+04   5.0152700e+04   5.0155914e+04   5.0158729e+04   5.0161146e+04   5.0163171e+04   5.0164817e+04   5.0166100e+04   5.0167040e+04   5.0167659e+04   5.0167984e+04   5.0168041e+04   5.0167856e+04   5.0167455e+04   5.0166865e+04   5.0166108e+04   5.0165205e+04   5.0164175e+04   5.0163032e+04   5.0161790e+04   5.0160458e+04   5.0159043e+04   5.0157548e+04   5.0155975e+04   5.0154324e+04   5.0152594e+04   5.0150780e+04   5.0148879e+04   5.0146887e+04   5.0144800e+04   5.0142613e+04   5.0140324e+04   5.0137930e+04   5.0135429e+04   5.0132822e+04   5.0130108e+04   5.0127292e+04   5.0124375e+04   5.0121363e+04   5.0118263e+04   5.0115080e+04   5.0111822e+04   5.0108499e+04   5.0105120e+04   5.0101694e+04   5.0098232e+04   5.0094744e+04   5.0091241e+04   5.0087732e+04   5.0084229e+04   5.0080740e+04   5.0077277e+04   5.0073847e+04   5.0070459e+04   5.0067122e+04   5.0063843e+04   5.0060629e+04   5.0057486e+04   5.0054420e+04   5.0051436e+04   5.0048538e+04   5.0045731e+04   5.0043016e+04   5.0040398e+04   5.0037877e+04   5.0035456e+04   5.0033136e+04   5.0030916e+04   5.0028797e+04   5.0026779e+04   5.0024861e+04   5.0023041e+04   5.0021319e+04   5.0019692e+04   5.0018158e+04   5.0016715e+04   5.0015360e+04   5.0014091e+04   5.0012905e+04   5.0011798e+04   5.0010767e+04   5.0009810e+04   5.0008923e+04   5.0008102e+04   5.0007344e+04   5.0006645e+04   5.0006004e+04   5.0005415e+04   5.0004876e+04   5.0004384e+04   5.0003935e+04   5.0003527e+04   5.0003156e+04   5.0002820e+04   5.0002517e+04   5.0002244e+04   5.0001997e+04   5.0001776e+04   5.0001578e+04   5.0001400e+04   5.0001242e+04   5.0001100e+04   5.0000975e+04   5.0000863e+04   5.0000764e+04   5.0000677e+04   5.0000600e+04   5.0000531e+04   5.0000471e+04   5.0000419e+04   5.0000372e+04   5.0000332e+04   5.0000296e+04   5.0000265e+04   5.0000238e+04   5.0000214e+04
5.0070756e+04   5.0076022e+04   5.0081363e+04   5.0086742e+04   5.0092118e+04   5.0097451e+04   5.0102697e+04   5.0107815e+04   5.0112766e+04   5.0117510e+04   5.0122014e+04   5.0126246e+04   5.0130179e+04   5.0133792e+04   5.0137069e+04   5.0139998e+04   5.0142574e+04   5.0144797e+04   5.0146672e+04   5.0148208e+04   5.0149421e+04   5.0150326e+04   5.0150942e+04   5.0151293e+04   5.0151400e+04   5.0151287e+04   5.0150975e+04   5.0150488e+04   5.0149844e+04   5.0149062e+04   5.0148159e+04   5.0147147e+04   5.0146038e+04   5.0144841e+04   5.0143560e+04   5.0142201e+04   5.0140765e+04   5.0139252e+04   5.0137662e+04   5.0135991e+04   5.0134239e+04   5.0132400e+04   5.0130473e+04   5.0128455e+04   5.0126343e+04   5.0124137e+04   5.0121835e+04   5.0119438e+04   5.0116948e+04   5.0114367e+04   5.0111698e+04   5.0108947e+04   5.0106119e+04   5.0103220e+04   5.0100258e+04   5.0097241e+04   5.0094177e+04   5.0091074e+04   5.0087943e+04   5.0084792e+04   5.0081630e+04   5.0078466e+04   5.0075310e+04   5.0072170e+04   5.0069055e+04   5.0065972e+04   5.0062929e+04   5.0059934e+04   5.0056992e+04   5.0054110e+04   5.0051293e+04   5.0048547e+04   5.0045875e+04   5.0043281e+04   5.0040769e+04   5.0038342e+04   5.0036001e+04   5.0033749e+04   5.0031586e+04   5.0029513e+04   5.0027531e+04   5.0025640e+04   5.0023839e+04   5.0022128e+04   5.0020505e+04   5.0018969e+04   5.0017519e+04   5.0016152e+04   5.0014866e+04   5.0013659e+04   5.0012529e+04   5.0011472e+04   5.0010487e+04   5.0009569e+04   5.0008717e+04   5.0007927e+04   5.0007197e+04   5.0006523e+04   5.0005901e+04   5.0005330e+04   5.0004807e+04   5.0004327e+04   5.0003890e+04   5.0003491e+04   5.0003128e+04   5.0002798e+04   5.0002500e+04   5.0002230e+04   5.0001987e+04   5.0001768e+04   5.0001571e+04   5.0001395e+04   5.0001237e+04   5.0001096e+04   5.0000971e+04   5.0000859e+04   5.0000760e+04   5.0000672e+04   5.0000595e+04   5.0000526e+04   5.0000466e+04   5.0000412e+04   5.0000366e+04   5.0000325e+04   5.0000289e+04   5.0000257e+04   5.0000229e+04   5.0000205e+04   5.0000184e+04
5.0063308e+04   5.0068005e+04   5.0072771e+04   5.0077573e+04   5.0082375e+04   5.0087141e+04   5.0091833e+04   5.0096416e+04   5.0100853e+04   5.0105111e+04   5.0109159e+04   5.0112970e+04   5.0116519e+04   5.0119787e+04   5.0122759e+04   5.0125425e+04   5.0127780e+04   5.0129823e+04   5.0131557e+04   5.0132992e+04   5.0134137e+04   5.0135008e+04   5.0135620e+04   5.0135993e+04   5.0136145e+04   5.0136096e+04   5.0135866e+04   5.0135473e+04   5.0134935e+04   5.0134266e+04   5.0133482e+04   5.0132594e+04   5.0131611e+04   5.0130542e+04   5.0129391e+04   5.0128163e+04   5.0126859e+04   5.0125480e+04   5.0124026e+04   5.0122495e+04   5.0120886e+04   5.0119196e+04   5.0117424e+04   5.0115568e+04   5.0113626e+04   5.0111599e+04   5.0109485e+04   5.0107287e+04   5.0105006e+04   5.0102644e+04   5.0100206e+04   5.0097696e+04   5.0095120e+04   5.0092483e+04   5.0089792e+04   5.0087055e+04   5.0084278e+04   5.0081471e+04   5.0078640e+04   5.0075794e+04   5.0072942e+04   5.0070091e+04   5.0067249e+04   5.0064425e+04   5.0061624e+04   5.0058856e+04   5.0056125e+04   5.0053438e+04   5.0050801e+04   5.0048219e+04   5.0045697e+04   5.0043240e+04   5.0040850e+04   5.0038531e+04   5.0036287e+04   5.0034118e+04   5.0032028e+04   5.0030018e+04   5.0028088e+04   5.0026240e+04   5.0024473e+04   5.0022788e+04   5.0021183e+04   5.0019659e+04   5.0018214e+04   5.0016847e+04   5.0015556e+04   5.0014340e+04   5.0013196e+04   5.0012123e+04   5.0011118e+04   5.0010179e+04   5.0009303e+04   5.0008488e+04   5.0007731e+04   5.0007030e+04   5.0006381e+04   5.0005782e+04   5.0005231e+04   5.0004724e+04   5.0004259e+04   5.0003834e+04   5.0003445e+04   5.0003091e+04   5.0002769e+04   5.0002476e+04   5.0002212e+04   5.0001972e+04   5.0001757e+04   5.0001562e+04   5.0001388e+04   5.0001231e+04   5.0001092e+04   5.0000967e+04   5.0000855e+04   5.0000756e+04   5.0000669e+04   5.0000591e+04   5.0000522e+04   5.0000461e+04   5.0000408e+04   5.0000360e+04   5.0000319e+04   5.0000283e+04   5.0000251e+04   5.0000223e+04   5.0000199e+04   5.0000177e+04   5.0000159e+04
5.0056511e+04   5.0060691e+04   5.0064934e+04   5.0069210e+04   5.0073490e+04   5.0077740e+04   5.0081928e+04   5.0086022e+04   5.0089991e+04   5.0093805e+04   5.0097436e+04   5.0100861e+04   5.0104058e+04   5.0107009e+04   5.0109701e+04   5.0112125e+04   5.0114275e+04   5.0116151e+04   5.0117754e+04   5.0119092e+04   5.0120173e+04   5.0121009e+04   5.0121615e+04   5.0122005e+04   5.0122196e+04   5.0122204e+04   5.0122047e+04   5.0121740e+04   5.0121297e+04   5.0120733e+04   5.0120059e+04   5.0119285e+04   5.0118421e+04   5.0117472e+04   5.0116444e+04   5.0115339e+04   5.0114162e+04   5.0112911e+04   5.0111588e+04   5.0110191e+04   5.0108719e+04   5.0107172e+04   5.0105548e+04   5.0103846e+04   5.0102066e+04   5.0100208e+04   5.0098272e+04   5.0096260e+04   5.0094175e+04   5.0092018e+04   5.0089795e+04   5.0087508e+04   5.0085164e+04   5.0082768e+04   5.0080326e+04   5.0077845e+04   5.0075331e+04   5.0072792e+04   5.0070235e+04   5.0067668e+04   5.0065097e+04   5.0062529e+04   5.0059973e+04   5.0057434e+04   5.0054919e+04   5.0052434e+04   5.0049985e+04   5.0047577e+04   5.0045216e+04   5.0042905e+04   5.0040649e+04   5.0038452e+04   5.0036317e+04   5.0034247e+04   5.0032244e+04   5.0030309e+04   5.0028446e+04   5.0026654e+04   5.0024935e+04   5.0023289e+04   5.0021716e+04   5.0020217e+04   5.0018789e+04   5.0017434e+04   5.0016150e+04   5.0014935e+04   5.0013788e+04   5.0012708e+04   5.0011693e+04   5.0010740e+04   5.0009848e+04   5.0009015e+04   5.0008238e+04   5.0007515e+04   5.0006844e+04   5.0006222e+04   5.0005647e+04   5.0005116e+04   5.0004628e+04   5.0004179e+04   5.0003767e+04   5.0003390e+04   5.0003046e+04   5.0002732e+04   5.0002447e+04   5.0002188e+04   5.0001953e+04   5.0001741e+04   5.0001550e+04   5.0001378e+04   5.0001224e+04   5.0001085e+04   5.0000961e+04   5.0000851e+04   5.0000752e+04   5.0000665e+04   5.0000587e+04   5.0000518e+04   5.0000457e+04   5.0000404e+04   5.0000356e+04   5.0000315e+04   5.0000278e+04   5.0000246e+04   5.0000218e+04   5.0000193e+04   5.0000172e+04   5.0000153e+04   5.0000136e+04
5.0050329e+04   5.0054041e+04   5.0057809e+04   5.0061610e+04   5.0065415e+04   5.0069197e+04   5.0072927e+04   5.0076577e+04   5.0080120e+04   5.0083529e+04   5.0086781e+04   5.0089854e+04   5.0092729e+04   5.0095390e+04   5.0097825e+04   5.0100025e+04   5.0101986e+04   5.0103706e+04   5.0105186e+04   5.0106432e+04   5.0107451e+04   5.0108252e+04   5.0108847e+04   5.0109250e+04   5.0109473e+04   5.0109531e+04   5.0109437e+04   5.0109206e+04   5.0108850e+04   5.0108379e+04   5.0107806e+04   5.0107138e+04   5.0106382e+04   5.0105545e+04   5.0104631e+04   5.0103644e+04   5.0102585e+04   5.0101455e+04   5.0100255e+04   5.0098985e+04   5.0097644e+04   5.0096233e+04   5.0094749e+04   5.0093194e+04   5.0091566e+04   5.0089868e+04   5.0088099e+04   5.0086262e+04   5.0084359e+04   5.0082393e+04   5.0080368e+04   5.0078289e+04   5.0076159e+04   5.0073985e+04   5.0071771e+04   5.0069524e+04   5.0067251e+04   5.0064958e+04   5.0062650e+04   5.0060335e+04   5.0058020e+04   5.0055710e+04   5.0053412e+04   5.0051132e+04   5.0048875e+04   5.0046647e+04   5.0044453e+04   5.0042297e+04   5.0040185e+04   5.0038119e+04   5.0036104e+04   5.0034142e+04   5.0032237e+04   5.0030390e+04   5.0028605e+04   5.0026882e+04   5.0025222e+04   5.0023628e+04   5.0022098e+04   5.0020635e+04   5.0019237e+04   5.0017904e+04   5.0016637e+04   5.0015434e+04   5.0014294e+04   5.0013216e+04   5.0012199e+04   5.0011242e+04   5.0010342e+04   5.0009498e+04   5.0008707e+04   5.0007970e+04   5.0007282e+04   5.0006642e+04   5.0006048e+04   5.0005497e+04   5.0004988e+04   5.0004519e+04   5.0004086e+04   5.0003689e+04   5.0003325e+04   5.0002992e+04   5.0002687e+04   5.0002410e+04   5.0002158e+04   5.0001929e+04   5.0001722e+04   5.0001535e+04   5.0001366e+04   5.0001214e+04   5.0001077e+04   5.0000955e+04   5.0000846e+04   5.0000748e+04   5.0000661e+04   5.0000583e+04   5.0000515e+04   5.0000454e+04   5.0000400e+04   5.0000353e+04   5.0000311e+04   5.0000274e+04   5.0000242e+04   5.0000214e+04   5.0000189e+04   5.0000167e+04   5.0000148e+04   5.0000132e+04   5.0000117e+04
5.0044727e+04   5.0048014e+04   5.0051354e+04   5.0054724e+04   5.0058100e+04   5.0061459e+04   5.0064774e+04   5.0068022e+04   5.0071179e+04   5.0074221e+04   5.0077128e+04   5.0079880e+04   5.0082461e+04   5.0084856e+04   5.0087055e+04   5.0089050e+04   5.0090836e+04   5.0092411e+04   5.0093776e+04   5.0094934e+04   5.0095892e+04   5.0096657e+04   5.0097239e+04   5.0097649e+04   5.0097897e+04   5.0097997e+04   5.0097958e+04   5.0097794e+04   5.0097513e+04   5.0097127e+04   5.0096644e+04   5.0096071e+04   5.0095415e+04   5.0094681e+04   5.0093872e+04   5.0092993e+04   5.0092044e+04   5.0091028e+04   5.0089944e+04   5.0088793e+04   5.0087576e+04   5.0086292e+04   5.0084940e+04   5.0083523e+04   5.0082039e+04   5.0080490e+04   5.0078877e+04   5.0077204e+04   5.0075471e+04   5.0073682e+04   5.0071842e+04   5.0069953e+04   5.0068021e+04   5.0066050e+04   5.0064047e+04   5.0062015e+04   5.0059961e+04   5.0057892e+04   5.0055812e+04   5.0053727e+04   5.0051644e+04   5.0049568e+04   5.0047505e+04   5.0045459e+04   5.0043436e+04   5.0041440e+04   5.0039476e+04   5.0037549e+04   5.0035661e+04   5.0033816e+04   5.0032018e+04   5.0030268e+04   5.0028570e+04   5.0026926e+04   5.0025336e+04   5.0023803e+04   5.0022327e+04   5.0020910e+04   5.0019552e+04   5.0018252e+04   5.0017012e+04   5.0015830e+04   5.0014706e+04   5.0013639e+04   5.0012629e+04   5.0011675e+04   5.0010774e+04   5.0009927e+04   5.0009130e+04   5.0008384e+04   5.0007685e+04   5.0007032e+04   5.0006424e+04   5.0005859e+04   5.0005334e+04   5.0004848e+04   5.0004398e+04   5.0003984e+04   5.0003602e+04   5.0003251e+04   5.0002930e+04   5.0002636e+04   5.0002367e+04   5.0002122e+04   5.0001900e+04   5.0001698e+04   5.0001515e+04   5.0001350e+04   5.0001201e+04   5.0001067e+04   5.0000947e+04   5.0000839e+04   5.0000742e+04   5.0000656e+04   5.0000580e+04   5.0000511e+04   5.0000451e+04   5.0000397e+04   5.0000350e+04   5.0000308e+04   5.0000271e+04   5.0000239e+04   5.0000210e+04   5.0000185e+04   5.0000164e+04   5.0000145e+04   5.0000128e+04   5.0000113e+04   5.0000101e+04
5.0039664e+04   5.0042571e+04   5.0045524e+04   5.0048506e+04   5.0051496e+04   5.0054472e+04   5.0057413e+04   5.0060298e+04   5.0063105e+04   5.0065814e+04   5.0068408e+04   5.0070869e+04   5.0073182e+04   5.0075335e+04   5.0077318e+04   5.0079124e+04   5.0080748e+04   5.0082188e+04   5.0083444e+04   5.0084519e+04   5.0085417e+04   5.0086146e+04   5.0086712e+04   5.0087124e+04   5.0087391e+04   5.0087524e+04   5.0087532e+04   5.0087425e+04   5.0087211e+04   5.0086899e+04   5.0086496e+04   5.0086008e+04   5.0085442e+04   5.0084801e+04   5.0084089e+04   5.0083309e+04   5.0082462e+04   5.0081551e+04   5.0080575e+04   5.0079536e+04   5.0078434e+04   5.0077269e+04   5.0076041e+04   5.0074752e+04   5.0073403e+04   5.0071994e+04   5.0070527e+04   5.0069005e+04   5.0067431e+04   5.0065807e+04   5.0064136e+04   5.0062424e+04   5.0060674e+04   5.0058891e+04   5.0057079e+04   5.0055245e+04   5.0053392e+04   5.0051527e+04   5.0049654e+04   5.0047779e+04   5.0045907e+04   5.0044043e+04   5.0042192e+04   5.0040359e+04   5.0038547e+04   5.0036762e+04   5.0035006e+04   5.0033285e+04   5.0031599e+04   5.0029954e+04   5.0028351e+04   5.0026793e+04   5.0025281e+04   5.0023818e+04   5.0022405e+04   5.0021043e+04   5.0019733e+04   5.0018475e+04   5.0017270e+04   5.0016118e+04   5.0015019e+04   5.0013972e+04   5.0012977e+04   5.0012033e+04   5.0011139e+04   5.0010295e+04   5.0009499e+04   5.0008750e+04   5.0008047e+04   5.0007387e+04   5.0006770e+04   5.0006195e+04   5.0005658e+04   5.0005159e+04   5.0004696e+04   5.0004267e+04   5.0003871e+04   5.0003506e+04   5.0003169e+04   5.0002860e+04   5.0002577e+04   5.0002318e+04   5.0002081e+04   5.0001866e+04   5.0001670e+04   5.0001492e+04   5.0001331e+04   5.0001186e+04   5.0001055e+04   5.0000937e+04   5.0000831e+04   5.0000736e+04   5.0000651e+04   5.0000575e+04   5.0000507e+04   5.0000447e+04   5.0000394e+04   5.0000347e+04   5.0000305e+04   5.0000269e+04   5.0000236e+04   5.0000208e+04   5.0000183e+04   5.0000161e+04   5.0000142e+04   5.0000125e+04   5.0000110e+04   5.0000098e+04   5.0000087e+04
5.0035104e+04   5.0037668e+04   5.0040275e+04   5.0042909e+04   5.0045551e+04   5.0048183e+04   5.0050787e+04   5.0053344e+04   5.0055836e+04   5.0058245e+04   5.0060555e+04   5.0062752e+04   5.0064822e+04   5.0066754e+04   5.0068540e+04   5.0070172e+04   5.0071646e+04   5.0072960e+04   5.0074114e+04   5.0075110e+04   5.0075950e+04   5.0076641e+04   5.0077187e+04   5.0077597e+04   5.0077878e+04   5.0078037e+04   5.0078083e+04   5.0078024e+04   5.0077868e+04   5.0077620e+04   5.0077287e+04   5.0076876e+04   5.0076390e+04   5.0075833e+04   5.0075208e+04   5.0074518e+04   5.0073765e+04   5.0072951e+04   5.0072075e+04   5.0071139e+04   5.0070144e+04   5.0069090e+04   5.0067978e+04   5.0066809e+04   5.0065585e+04   5.0064306e+04   5.0062975e+04   5.0061594e+04   5.0060166e+04   5.0058694e+04   5.0057181e+04   5.0055631e+04   5.0054049e+04   5.0052437e+04   5.0050802e+04   5.0049148e+04   5.0047479e+04   5.0045800e+04   5.0044116e+04   5.0042432e+04   5.0040752e+04   5.0039080e+04   5.0037422e+04   5.0035781e+04   5.0034161e+04   5.0032565e+04   5.0030998e+04   5.0029462e+04   5.0027959e+04   5.0026494e+04   5.0025067e+04   5.0023681e+04   5.0022337e+04   5.0021037e+04   5.0019783e+04   5.0018574e+04   5.0017412e+04   5.0016298e+04   5.0015230e+04   5.0014210e+04   5.0013237e+04   5.0012311e+04   5.0011432e+04   5.0010598e+04   5.0009809e+04   5.0009063e+04   5.0008361e+04   5.0007700e+04   5.0007080e+04   5.0006498e+04   5.0005954e+04   5.0005447e+04   5.0004974e+04   5.0004535e+04   5.0004127e+04   5.0003750e+04   5.0003401e+04   5.0003080e+04   5.0002784e+04   5.0002512e+04   5.0002263e+04   5.0002035e+04   5.0001827e+04   5.0001637e+04   5.0001465e+04   5.0001309e+04   5.0001167e+04   5.0001040e+04   5.0000924e+04   5.0000821e+04   5.0000728e+04   5.0000644e+04   5.0000570e+04   5.0000503e+04   5.0000444e+04   5.0000391e+04   5.0000344e+04   5.0000303e+04   5.0000266e+04   5.0000234e+04   5.0000205e+04   5.0000181e+04   5.0000159e+04   5.0000139e+04   5.0000123e+04   5.0000108e+04   5.0000095e+04   5.0000084e+04   5.0000074e+04
