1.0026688e+04   1.0030302e+04   1.0034199e+04   1.0038364e+04   1.0042778e+04   1.0047413e+04   1.0052235e+04   1.0057204e+04   1.0062271e+04   1.0067383e+04   1.0072482e+04   1.0077505e+04   1.0082387e+04   1.0087063e+04   1.0091467e+04   1.0095538e+04   1.0099216e+04   1.0102449e+04   1.0105191e+04   1.0107407e+04   1.0109069e+04   1.0110163e+04   1.0110682e+04   1.0110636e+04   1.0110041e+04   1.0108927e+04   1.0107332e+04   1.0105304e+04   1.0102897e+04   1.0100172e+04   1.0097192e+04   1.0094022e+04   1.0090729e+04   1.0087377e+04   1.0084028e+04   1.0080738e+04   1.0077560e+04   1.0074539e+04   1.0071714e+04   1.0069116e+04   1.0066771e+04   1.0064697e+04   1.0062907e+04   1.0061407e+04   1.0060198e+04   1.0059280e+04   1.0058647e+04   1.0058293e+04   1.0058209e+04   1.0058387e+04   1.0058819e+04   1.0059496e+04   1.0060413e+04   1.0061563e+04   1.0062944e+04   1.0064553e+04   1.0066389e+04   1.0068453e+04   1.0070747e+04   1.0073271e+04   1.0076030e+04   1.0079026e+04   1.0082261e+04   1.0085736e+04   1.0089452e+04   1.0093408e+04   1.0097602e+04   1.0102029e+04   1.0106682e+04   1.0111552e+04   1.0116628e+04   1.0121895e+04   1.0127337e+04   1.0132934e+04   1.0138664e+04   1.0144503e+04   1.0150425e+04   1.0156400e+04   1.0162398e+04   1.0168387e+04   1.0174335e+04   1.0180207e+04   1.0185971e+04   1.0191593e+04   1.0197040e+04   1.0202281e+04   1.0207287e+04   1.0212031e+04   1.0216488e+04   1.0220635e+04   1.0224454e+04   1.0227929e+04   1.0231048e+04   1.0233802e+04   1.0236184e+04   1.0238191e+04   1.0239824e+04   1.0241085e+04   1.0241978e+04   1.0242510e+04   1.0242688e+04   1.0242522e+04   1.0242022e+04   1.0241199e+04   1.0240062e+04   1.0238623e+04   1.0236892e+04   1.0234879e+04   1.0232596e+04   1.0230051e+04   1.0227253e+04   1.0224213e+04   1.0220938e+04   1.0217437e+04   1.0213720e+04   1.0209794e+04   1.0205671e+04   1.0201358e+04   1.0196866e+04   1.0192207e+04   1.0187391e+04   1.0182430e+04   1.0177337e+04   1.0172126e+04   1.0166810e+04   1.0161405e+04   1.0155926e+04   1.0150387e+04   1.0144806e+04
1.0027779e+04   1.0031540e+04   1.0035594e+04   1.0039928e+04   1.0044521e+04   1.0049345e+04   1.0054365e+04   1.0059538e+04   1.0064815e+04   1.0070141e+04   1.0075455e+04   1.0080693e+04   1.0085789e+04   1.0090674e+04   1.0095282e+04   1.0099548e+04   1.0103412e+04   1.0106821e+04   1.0109727e+04   1.0112095e+04   1.0113897e+04   1.0115118e+04   1.0115753e+04   1.0115811e+04   1.0115311e+04   1.0114284e+04   1.0112770e+04   1.0110817e+04   1.0108484e+04   1.0105830e+04   1.0102921e+04   1.0099825e+04   1.0096609e+04   1.0093338e+04   1.0090073e+04   1.0086873e+04   1.0083788e+04   1.0080863e+04   1.0078136e+04   1.0075637e+04   1.0073390e+04   1.0071411e+04   1.0069710e+04   1.0068292e+04   1.0067157e+04   1.0066302e+04   1.0065720e+04   1.0065404e+04   1.0065343e+04   1.0065530e+04   1.0065957e+04   1.0066614e+04   1.0067498e+04   1.0068605e+04   1.0069931e+04   1.0071477e+04   1.0073245e+04   1.0075238e+04   1.0077460e+04   1.0079915e+04   1.0082610e+04   1.0085550e+04   1.0088740e+04   1.0092184e+04   1.0095885e+04   1.0099843e+04   1.0104060e+04   1.0108530e+04   1.0113249e+04   1.0118208e+04   1.0123396e+04   1.0128798e+04   1.0134398e+04   1.0140174e+04   1.0146102e+04   1.0152158e+04   1.0158310e+04   1.0164527e+04   1.0170776e+04   1.0177022e+04   1.0183226e+04   1.0189352e+04   1.0195363e+04   1.0201220e+04   1.0206887e+04   1.0212330e+04   1.0217516e+04   1.0222413e+04   1.0226995e+04   1.0231238e+04   1.0235122e+04   1.0238629e+04   1.0241747e+04   1.0244467e+04   1.0246784e+04   1.0248697e+04   1.0250206e+04   1.0251317e+04   1.0252037e+04   1.0252374e+04   1.0252341e+04   1.0251948e+04   1.0251210e+04   1.0250138e+04   1.0248748e+04   1.0247051e+04   1.0245062e+04   1.0242792e+04   1.0240253e+04   1.0237457e+04   1.0234413e+04   1.0231132e+04   1.0227623e+04   1.0223895e+04   1.0219957e+04   1.0215819e+04   1.0211488e+04   1.0206974e+04   1.0202288e+04   1.0197438e+04   1.0192437e+04   1.0187295e+04   1.0182026e+04   1.0176641e+04   1.0171156e+04   1.0165583e+04   1.0159939e+04   1.0154238e+04   1.0148497e+04
1.0028862e+04   1.0032767e+04   1.0036977e+04   1.0041478e+04   1.0046249e+04   1.0051260e+04   1.0056476e+04   1.0061851e+04   1.0067337e+04   1.0072875e+04   1.0078404e+04   1.0083858e+04   1.0089167e+04   1.0094263e+04   1.0099077e+04   1.0103542e+04   1.0107598e+04   1.0111189e+04   1.0114269e+04   1.0116799e+04   1.0118754e+04   1.0120117e+04   1.0120886e+04   1.0121070e+04   1.0120688e+04   1.0119774e+04   1.0118369e+04   1.0116524e+04   1.0114297e+04   1.0111751e+04   1.0108954e+04   1.0105973e+04   1.0102877e+04   1.0099731e+04   1.0096597e+04   1.0093532e+04   1.0090587e+04   1.0087805e+04   1.0085222e+04   1.0082866e+04   1.0080760e+04   1.0078916e+04   1.0077343e+04   1.0076042e+04   1.0075013e+04   1.0074248e+04   1.0073741e+04   1.0073481e+04   1.0073459e+04   1.0073666e+04   1.0074092e+04   1.0074733e+04   1.0075581e+04   1.0076637e+04   1.0077898e+04   1.0079369e+04   1.0081052e+04   1.0082954e+04   1.0085082e+04   1.0087445e+04   1.0090051e+04   1.0092909e+04   1.0096028e+04   1.0099413e+04   1.0103071e+04   1.0107006e+04   1.0111220e+04   1.0115709e+04   1.0120472e+04   1.0125499e+04   1.0130781e+04   1.0136302e+04   1.0142045e+04   1.0147987e+04   1.0154104e+04   1.0160367e+04   1.0166743e+04   1.0173198e+04   1.0179694e+04   1.0186192e+04   1.0192651e+04   1.0199028e+04   1.0205282e+04   1.0211370e+04   1.0217252e+04   1.0222888e+04   1.0228243e+04   1.0233281e+04   1.0237974e+04   1.0242294e+04   1.0246219e+04   1.0249732e+04   1.0252821e+04   1.0255475e+04   1.0257692e+04   1.0259471e+04   1.0260816e+04   1.0261734e+04   1.0262236e+04   1.0262334e+04   1.0262042e+04   1.0261376e+04   1.0260353e+04   1.0258988e+04   1.0257300e+04   1.0255303e+04   1.0253015e+04   1.0250449e+04   1.0247619e+04   1.0244538e+04   1.0241218e+04   1.0237670e+04   1.0233903e+04   1.0229927e+04   1.0225751e+04   1.0221384e+04   1.0216835e+04   1.0212111e+04   1.0207223e+04   1.0202180e+04   1.0196992e+04   1.0191671e+04   1.0186228e+04   1.0180674e+04   1.0175025e+04   1.0169293e+04   1.0163493e+04   1.0157640e+04   1.0151750e+04
1.0029933e+04   1.0033981e+04   1.0038345e+04   1.0043011e+04   1.0047956e+04   1.0053152e+04   1.0058561e+04   1.0064137e+04   1.0069828e+04   1.0075577e+04   1.0081319e+04   1.0086987e+04   1.0092511e+04   1.0097818e+04   1.0102840e+04   1.0107508e+04   1.0111760e+04   1.0115540e+04   1.0118802e+04   1.0121506e+04   1.0123626e+04   1.0125148e+04   1.0126069e+04   1.0126399e+04   1.0126160e+04   1.0125386e+04   1.0124120e+04   1.0122415e+04   1.0120331e+04   1.0117932e+04   1.0115287e+04   1.0112465e+04   1.0109534e+04   1.0106560e+04   1.0103606e+04   1.0100726e+04   1.0097970e+04   1.0095380e+04   1.0092990e+04   1.0090825e+04   1.0088905e+04   1.0087240e+04   1.0085836e+04   1.0084691e+04   1.0083801e+04   1.0083158e+04   1.0082752e+04   1.0082572e+04   1.0082607e+04   1.0082846e+04   1.0083283e+04   1.0083910e+04   1.0084724e+04   1.0085725e+04   1.0086915e+04   1.0088298e+04   1.0089881e+04   1.0091675e+04   1.0093690e+04   1.0095937e+04   1.0098430e+04   1.0101181e+04   1.0104200e+04   1.0107500e+04   1.0111089e+04   1.0114973e+04   1.0119156e+04   1.0123639e+04   1.0128420e+04   1.0133493e+04   1.0138846e+04   1.0144466e+04   1.0150334e+04   1.0156428e+04   1.0162719e+04   1.0169177e+04   1.0175767e+04   1.0182450e+04   1.0189186e+04   1.0195929e+04   1.0202636e+04   1.0209258e+04   1.0215748e+04   1.0222060e+04   1.0228147e+04   1.0233967e+04   1.0239477e+04   1.0244641e+04   1.0249426e+04   1.0253801e+04   1.0257744e+04   1.0261236e+04   1.0264263e+04   1.0266818e+04   1.0268897e+04   1.0270503e+04   1.0271641e+04   1.0272323e+04   1.0272561e+04   1.0272372e+04   1.0271775e+04   1.0270788e+04   1.0269432e+04   1.0267728e+04   1.0265696e+04   1.0263356e+04   1.0260727e+04   1.0257825e+04   1.0254668e+04   1.0251269e+04   1.0247643e+04   1.0243799e+04   1.0239751e+04   1.0235506e+04   1.0231074e+04   1.0226464e+04   1.0221684e+04   1.0216742e+04   1.0211646e+04   1.0206406e+04   1.0201031e+04   1.0195531e+04   1.0189917e+04   1.0184200e+04   1.0178393e+04   1.0172510e+04   1.0166564e+04   1.0160570e+04   1.0154544e+04
1.0030992e+04   1.0035179e+04   1.0039694e+04   1.0044522e+04   1.0049639e+04   1.0055016e+04   1.0060614e+04   1.0066387e+04   1.0072282e+04   1.0078239e+04   1.0084192e+04   1.0090073e+04   1.0095809e+04   1.0101328e+04   1.0106559e+04   1.0111432e+04   1.0115885e+04   1.0119861e+04   1.0123311e+04   1.0126199e+04   1.0128498e+04   1.0130194e+04   1.0131285e+04   1.0131782e+04   1.0131710e+04   1.0131103e+04   1.0130007e+04   1.0128476e+04   1.0126571e+04   1.0124358e+04   1.0121907e+04   1.0119288e+04   1.0116569e+04   1.0113816e+04   1.0111089e+04   1.0108445e+04   1.0105929e+04   1.0103583e+04   1.0101436e+04   1.0099512e+04   1.0097826e+04   1.0096386e+04   1.0095194e+04   1.0094246e+04   1.0093533e+04   1.0093046e+04   1.0092771e+04   1.0092696e+04   1.0092809e+04   1.0093100e+04   1.0093559e+04   1.0094182e+04   1.0094966e+04   1.0095912e+04   1.0097025e+04   1.0098313e+04   1.0099786e+04   1.0101457e+04   1.0103340e+04   1.0105453e+04   1.0107810e+04   1.0110428e+04   1.0113324e+04   1.0116511e+04   1.0120002e+04   1.0123806e+04   1.0127932e+04   1.0132381e+04   1.0137154e+04   1.0142245e+04   1.0147645e+04   1.0153341e+04   1.0159313e+04   1.0165536e+04   1.0171983e+04   1.0178620e+04   1.0185408e+04   1.0192307e+04   1.0199269e+04   1.0206247e+04   1.0213190e+04   1.0220046e+04   1.0226761e+04   1.0233285e+04   1.0239565e+04   1.0245553e+04   1.0251204e+04   1.0256475e+04   1.0261331e+04   1.0265738e+04   1.0269672e+04   1.0273113e+04   1.0276047e+04   1.0278467e+04   1.0280370e+04   1.0281762e+04   1.0282652e+04   1.0283052e+04   1.0282981e+04   1.0282458e+04   1.0281507e+04   1.0280151e+04   1.0278416e+04   1.0276326e+04   1.0273907e+04   1.0271180e+04   1.0268169e+04   1.0264894e+04   1.0261374e+04   1.0257625e+04   1.0253661e+04   1.0249496e+04   1.0245142e+04   1.0240608e+04   1.0235903e+04   1.0231035e+04   1.0226014e+04   1.0220845e+04   1.0215536e+04   1.0210096e+04   1.0204533e+04   1.0198855e+04   1.0193074e+04   1.0187199e+04   1.0181243e+04   1.0175217e+04   1.0169136e+04   1.0163012e+04   1.0156861e+04
1.0032035e+04   1.0036359e+04   1.0041022e+04   1.0046008e+04   1.0051293e+04   1.0056848e+04   1.0062631e+04   1.0068597e+04   1.0074691e+04   1.0080852e+04   1.0087014e+04   1.0093104e+04   1.0099052e+04   1.0104782e+04   1.0110221e+04   1.0115302e+04   1.0119958e+04   1.0124134e+04   1.0127781e+04   1.0130863e+04   1.0133352e+04   1.0135236e+04   1.0136514e+04   1.0137200e+04   1.0137318e+04   1.0136905e+04   1.0136008e+04   1.0134683e+04   1.0132993e+04   1.0131005e+04   1.0128789e+04   1.0126416e+04   1.0123954e+04   1.0121469e+04   1.0119021e+04   1.0116662e+04   1.0114437e+04   1.0112385e+04   1.0110532e+04   1.0108899e+04   1.0107496e+04   1.0106329e+04   1.0105394e+04   1.0104684e+04   1.0104189e+04   1.0103893e+04   1.0103783e+04   1.0103843e+04   1.0104060e+04   1.0104422e+04   1.0104921e+04   1.0105552e+04   1.0106314e+04   1.0107211e+04   1.0108249e+04   1.0109438e+04   1.0110793e+04   1.0112331e+04   1.0114069e+04   1.0116029e+04   1.0118231e+04   1.0120696e+04   1.0123443e+04   1.0126492e+04   1.0129858e+04   1.0133556e+04   1.0137594e+04   1.0141980e+04   1.0146716e+04   1.0151797e+04   1.0157217e+04   1.0162960e+04   1.0169009e+04   1.0175339e+04   1.0181918e+04   1.0188711e+04   1.0195677e+04   1.0202771e+04   1.0209942e+04   1.0217136e+04   1.0224299e+04   1.0231372e+04   1.0238297e+04   1.0245016e+04   1.0251471e+04   1.0257610e+04   1.0263380e+04   1.0268738e+04   1.0273640e+04   1.0278054e+04   1.0281951e+04   1.0285310e+04   1.0288118e+04   1.0290367e+04   1.0292057e+04   1.0293195e+04   1.0293793e+04   1.0293869e+04   1.0293443e+04   1.0292542e+04   1.0291192e+04   1.0289422e+04   1.0287263e+04   1.0284744e+04   1.0281893e+04   1.0278740e+04   1.0275309e+04   1.0271624e+04   1.0267706e+04   1.0263575e+04   1.0259247e+04   1.0254736e+04   1.0250053e+04   1.0245211e+04   1.0240217e+04   1.0235080e+04   1.0229806e+04   1.0224403e+04   1.0218877e+04   1.0213235e+04   1.0207484e+04   1.0201632e+04   1.0195688e+04   1.0189661e+04   1.0183563e+04   1.0177404e+04   1.0171197e+04   1.0164956e+04   1.0158693e+04
1.0033062e+04   1.0037520e+04   1.0042327e+04   1.0047466e+04   1.0052915e+04   1.0058642e+04   1.0064607e+04   1.0070762e+04   1.0077050e+04   1.0083411e+04   1.0089776e+04   1.0096073e+04   1.0102228e+04   1.0108167e+04   1.0113815e+04   1.0119102e+04   1.0123965e+04   1.0128345e+04   1.0132194e+04   1.0135477e+04   1.0138167e+04   1.0140252e+04   1.0141734e+04   1.0142626e+04   1.0142955e+04   1.0142760e+04   1.0142090e+04   1.0141002e+04   1.0139560e+04   1.0137833e+04   1.0135891e+04   1.0133806e+04   1.0131645e+04   1.0129474e+04   1.0127350e+04   1.0125325e+04   1.0123441e+04   1.0121732e+04   1.0120223e+04   1.0118929e+04   1.0117858e+04   1.0117009e+04   1.0116377e+04   1.0115950e+04   1.0115712e+04   1.0115647e+04   1.0115737e+04   1.0115964e+04   1.0116313e+04   1.0116772e+04   1.0117332e+04   1.0117990e+04   1.0118744e+04   1.0119601e+04   1.0120569e+04   1.0121662e+04   1.0122898e+04   1.0124297e+04   1.0125882e+04   1.0127677e+04   1.0129709e+04   1.0132001e+04   1.0134580e+04   1.0137467e+04   1.0140683e+04   1.0144246e+04   1.0148169e+04   1.0152462e+04   1.0157129e+04   1.0162170e+04   1.0167577e+04   1.0173338e+04   1.0179433e+04   1.0185838e+04   1.0192520e+04   1.0199442e+04   1.0206558e+04   1.0213821e+04   1.0221175e+04   1.0228563e+04   1.0235922e+04   1.0243190e+04   1.0250301e+04   1.0257192e+04   1.0263800e+04   1.0270066e+04   1.0275933e+04   1.0281351e+04   1.0286274e+04   1.0290666e+04   1.0294497e+04   1.0297742e+04   1.0300390e+04   1.0302433e+04   1.0303873e+04   1.0304719e+04   1.0304986e+04   1.0304697e+04   1.0303876e+04   1.0302554e+04   1.0300763e+04   1.0298538e+04   1.0295914e+04   1.0292926e+04   1.0289607e+04   1.0285989e+04   1.0282103e+04   1.0277976e+04   1.0273632e+04   1.0269091e+04   1.0264373e+04   1.0259494e+04   1.0254465e+04   1.0249298e+04   1.0244002e+04   1.0238584e+04   1.0233050e+04   1.0227407e+04   1.0221661e+04   1.0215815e+04   1.0209878e+04   1.0203854e+04   1.0197753e+04   1.0191581e+04   1.0185349e+04   1.0179067e+04   1.0172746e+04   1.0166398e+04   1.0160037e+04
1.0034072e+04   1.0038660e+04   1.0043606e+04   1.0048895e+04   1.0054503e+04   1.0060398e+04   1.0066538e+04   1.0072875e+04   1.0079353e+04   1.0085908e+04   1.0092471e+04   1.0098970e+04   1.0105329e+04   1.0111473e+04   1.0117327e+04   1.0122821e+04   1.0127889e+04   1.0132475e+04   1.0136531e+04   1.0140021e+04   1.0142919e+04   1.0145217e+04   1.0146915e+04   1.0148029e+04   1.0148589e+04   1.0148634e+04   1.0148214e+04   1.0147390e+04   1.0146226e+04   1.0144792e+04   1.0143160e+04   1.0141400e+04   1.0139580e+04   1.0137763e+04   1.0136007e+04   1.0134360e+04   1.0132861e+04   1.0131542e+04   1.0130422e+04   1.0129514e+04   1.0128820e+04   1.0128336e+04   1.0128051e+04   1.0127949e+04   1.0128010e+04   1.0128214e+04   1.0128541e+04   1.0128969e+04   1.0129482e+04   1.0130068e+04   1.0130715e+04   1.0131421e+04   1.0132187e+04   1.0133020e+04   1.0133931e+04   1.0134937e+04   1.0136058e+04   1.0137320e+04   1.0138748e+04   1.0140373e+04   1.0142224e+04   1.0144331e+04   1.0146724e+04   1.0149429e+04   1.0152473e+04   1.0155875e+04   1.0159655e+04   1.0163825e+04   1.0168392e+04   1.0173358e+04   1.0178718e+04   1.0184461e+04   1.0190567e+04   1.0197012e+04   1.0203762e+04   1.0210776e+04   1.0218009e+04   1.0225408e+04   1.0232912e+04   1.0240461e+04   1.0247986e+04   1.0255418e+04   1.0262687e+04   1.0269721e+04   1.0276454e+04   1.0282818e+04   1.0288753e+04   1.0294202e+04   1.0299117e+04   1.0303458e+04   1.0307190e+04   1.0310291e+04   1.0312746e+04   1.0314550e+04   1.0315705e+04   1.0316224e+04   1.0316125e+04   1.0315434e+04   1.0314181e+04   1.0312402e+04   1.0310135e+04   1.0307419e+04   1.0304296e+04   1.0300805e+04   1.0296985e+04   1.0292873e+04   1.0288504e+04   1.0283907e+04   1.0279111e+04   1.0274139e+04   1.0269012e+04   1.0263746e+04   1.0258356e+04   1.0252851e+04   1.0247243e+04   1.0241536e+04   1.0235738e+04   1.0229852e+04   1.0223883e+04   1.0217836e+04   1.0211714e+04   1.0205524e+04   1.0199271e+04   1.0192962e+04   1.0186606e+04   1.0180210e+04   1.0173787e+04   1.0167345e+04   1.0160899e+04
1.0035065e+04   1.0039778e+04   1.0044860e+04   1.0050294e+04   1.0056055e+04   1.0062111e+04   1.0068421e+04   1.0074935e+04   1.0081595e+04   1.0088338e+04   1.0095093e+04   1.0101788e+04   1.0108346e+04   1.0114690e+04   1.0120746e+04   1.0126443e+04   1.0131715e+04   1.0136507e+04   1.0140771e+04   1.0144471e+04   1.0147584e+04   1.0150101e+04   1.0152025e+04   1.0153374e+04   1.0154179e+04   1.0154481e+04   1.0154332e+04   1.0153794e+04   1.0152933e+04   1.0151820e+04   1.0150526e+04   1.0149123e+04   1.0147677e+04   1.0146251e+04   1.0144899e+04   1.0143668e+04   1.0142594e+04   1.0141705e+04   1.0141016e+04   1.0140535e+04   1.0140260e+04   1.0140182e+04   1.0140285e+04   1.0140549e+04   1.0140949e+04   1.0141462e+04   1.0142062e+04   1.0142729e+04   1.0143441e+04   1.0144184e+04   1.0144949e+04   1.0145732e+04   1.0146535e+04   1.0147366e+04   1.0148238e+04   1.0149172e+04   1.0150191e+04   1.0151324e+04   1.0152601e+04   1.0154055e+04   1.0155722e+04   1.0157636e+04   1.0159831e+04   1.0162339e+04   1.0165190e+04   1.0168409e+04   1.0172018e+04   1.0176035e+04   1.0180469e+04   1.0185326e+04   1.0190602e+04   1.0196287e+04   1.0202364e+04   1.0208808e+04   1.0215583e+04   1.0222649e+04   1.0229957e+04   1.0237449e+04   1.0245064e+04   1.0252734e+04   1.0260385e+04   1.0267944e+04   1.0275333e+04   1.0282476e+04   1.0289298e+04   1.0295726e+04   1.0301695e+04   1.0307144e+04   1.0312019e+04   1.0316276e+04   1.0319879e+04   1.0322804e+04   1.0325036e+04   1.0326570e+04   1.0327410e+04   1.0327571e+04   1.0327076e+04   1.0325953e+04   1.0324239e+04   1.0321974e+04   1.0319202e+04   1.0315968e+04   1.0312318e+04   1.0308299e+04   1.0303954e+04   1.0299326e+04   1.0294452e+04   1.0289367e+04   1.0284101e+04   1.0278683e+04   1.0273132e+04   1.0267469e+04   1.0261706e+04   1.0255857e+04   1.0249930e+04   1.0243931e+04   1.0237865e+04   1.0231736e+04   1.0225547e+04   1.0219301e+04   1.0213000e+04   1.0206649e+04   1.0200252e+04   1.0193814e+04   1.0187343e+04   1.0180845e+04   1.0174330e+04   1.0167808e+04   1.0161290e+04
1.0036042e+04   1.0040877e+04   1.0046089e+04   1.0051662e+04   1.0057571e+04   1.0063782e+04   1.0070255e+04   1.0076938e+04   1.0083774e+04   1.0090697e+04   1.0097637e+04   1.0104520e+04   1.0111269e+04   1.0117808e+04   1.0124060e+04   1.0129955e+04   1.0135428e+04   1.0140423e+04   1.0144894e+04   1.0148805e+04   1.0152134e+04   1.0154874e+04   1.0157030e+04   1.0158622e+04   1.0159681e+04   1.0160252e+04   1.0160388e+04   1.0160153e+04   1.0159613e+04   1.0158841e+04   1.0157908e+04   1.0156885e+04   1.0155839e+04   1.0154831e+04   1.0153913e+04   1.0153129e+04   1.0152512e+04   1.0152085e+04   1.0151862e+04   1.0151843e+04   1.0152023e+04   1.0152388e+04   1.0152916e+04   1.0153582e+04   1.0154359e+04   1.0155218e+04   1.0156130e+04   1.0157071e+04   1.0158018e+04   1.0158955e+04   1.0159872e+04   1.0160764e+04   1.0161634e+04   1.0162491e+04   1.0163351e+04   1.0164236e+04   1.0165172e+04   1.0166191e+04   1.0167329e+04   1.0168621e+04   1.0170107e+04   1.0171827e+04   1.0173818e+04   1.0176118e+04   1.0178760e+04   1.0181776e+04   1.0185191e+04   1.0189025e+04   1.0193293e+04   1.0198004e+04   1.0203156e+04   1.0208742e+04   1.0214745e+04   1.0221140e+04   1.0227894e+04   1.0234963e+04   1.0242295e+04   1.0249833e+04   1.0257509e+04   1.0265251e+04   1.0272982e+04   1.0280622e+04   1.0288087e+04   1.0295294e+04   1.0302164e+04   1.0308618e+04   1.0314584e+04   1.0319995e+04   1.0324796e+04   1.0328936e+04   1.0332380e+04   1.0335099e+04   1.0337080e+04   1.0338316e+04   1.0338816e+04   1.0338595e+04   1.0337679e+04   1.0336103e+04   1.0333907e+04   1.0331136e+04   1.0327840e+04   1.0324070e+04   1.0319878e+04   1.0315315e+04   1.0310431e+04   1.0305273e+04   1.0299883e+04   1.0294299e+04   1.0288556e+04   1.0282682e+04   1.0276703e+04   1.0270637e+04   1.0264500e+04   1.0258304e+04   1.0252057e+04   1.0245766e+04   1.0239435e+04   1.0233066e+04   1.0226661e+04   1.0220221e+04   1.0213748e+04   1.0207243e+04   1.0200711e+04   1.0194154e+04   1.0187579e+04   1.0180990e+04   1.0174396e+04   1.0167805e+04   1.0161228e+04
1.0037004e+04   1.0041956e+04   1.0047294e+04   1.0053000e+04   1.0059051e+04   1.0065411e+04   1.0072039e+04   1.0078884e+04   1.0085887e+04   1.0092982e+04   1.0100099e+04   1.0107162e+04   1.0114094e+04   1.0120818e+04   1.0127259e+04   1.0133345e+04   1.0139013e+04   1.0144206e+04   1.0148878e+04   1.0152997e+04   1.0156541e+04   1.0159504e+04   1.0161893e+04   1.0163729e+04   1.0165048e+04   1.0165893e+04   1.0166322e+04   1.0166398e+04   1.0166190e+04   1.0165771e+04   1.0165212e+04   1.0164586e+04   1.0163957e+04   1.0163385e+04   1.0162920e+04   1.0162604e+04   1.0162466e+04   1.0162527e+04   1.0162793e+04   1.0163264e+04   1.0163927e+04   1.0164763e+04   1.0165748e+04   1.0166850e+04   1.0168037e+04   1.0169276e+04   1.0170536e+04   1.0171788e+04   1.0173007e+04   1.0174175e+04   1.0175280e+04   1.0176318e+04   1.0177291e+04   1.0178208e+04   1.0179088e+04   1.0179954e+04   1.0180834e+04   1.0181764e+04   1.0182781e+04   1.0183926e+04   1.0185242e+04   1.0186773e+04   1.0188561e+04   1.0190648e+04   1.0193071e+04   1.0195867e+04   1.0199065e+04   1.0202690e+04   1.0206761e+04   1.0211288e+04   1.0216275e+04   1.0221716e+04   1.0227597e+04   1.0233893e+04   1.0240570e+04   1.0247586e+04   1.0254887e+04   1.0262413e+04   1.0270093e+04   1.0277852e+04   1.0285607e+04   1.0293274e+04   1.0300763e+04   1.0307986e+04   1.0314856e+04   1.0321290e+04   1.0327210e+04   1.0332546e+04   1.0337235e+04   1.0341227e+04   1.0344480e+04   1.0346966e+04   1.0348670e+04   1.0349588e+04   1.0349727e+04   1.0349106e+04   1.0347756e+04   1.0345713e+04   1.0343024e+04   1.0339738e+04   1.0335910e+04   1.0331598e+04   1.0326858e+04   1.0321749e+04   1.0316324e+04   1.0310634e+04   1.0304727e+04   1.0298645e+04   1.0292425e+04   1.0286099e+04   1.0279692e+04   1.0273227e+04   1.0266719e+04   1.0260181e+04   1.0253620e+04   1.0247044e+04   1.0240454e+04   1.0233852e+04   1.0227238e+04   1.0220613e+04   1.0213976e+04   1.0207329e+04   1.0200671e+04   1.0194006e+04   1.0187337e+04   1.0180669e+04   1.0174008e+04   1.0167362e+04   1.0160739e+04
1.0037955e+04   1.0043019e+04   1.0048477e+04   1.0054312e+04   1.0060497e+04   1.0066999e+04   1.0073775e+04   1.0080773e+04   1.0087934e+04   1.0095193e+04   1.0102476e+04   1.0109709e+04   1.0116814e+04   1.0123715e+04   1.0130334e+04   1.0136603e+04   1.0142455e+04   1.0147838e+04   1.0152705e+04   1.0157024e+04   1.0160776e+04   1.0163957e+04   1.0166575e+04   1.0168653e+04   1.0170228e+04   1.0171347e+04   1.0172069e+04   1.0172457e+04   1.0172583e+04   1.0172520e+04   1.0172340e+04   1.0172115e+04   1.0171910e+04   1.0171781e+04   1.0171779e+04   1.0171941e+04   1.0172294e+04   1.0172855e+04   1.0173627e+04   1.0174604e+04   1.0175769e+04   1.0177099e+04   1.0178563e+04   1.0180127e+04   1.0181752e+04   1.0183403e+04   1.0185043e+04   1.0186640e+04   1.0188168e+04   1.0189605e+04   1.0190938e+04   1.0192161e+04   1.0193276e+04   1.0194293e+04   1.0195231e+04   1.0196113e+04   1.0196971e+04   1.0197842e+04   1.0198766e+04   1.0199787e+04   1.0200951e+04   1.0202306e+04   1.0203897e+04   1.0205771e+04   1.0207970e+04   1.0210534e+04   1.0213497e+04   1.0216888e+04   1.0220730e+04   1.0225037e+04   1.0229817e+04   1.0235066e+04   1.0240773e+04   1.0246914e+04   1.0253457e+04   1.0260359e+04   1.0267567e+04   1.0275017e+04   1.0282637e+04   1.0290349e+04   1.0298066e+04   1.0305698e+04   1.0313152e+04   1.0320334e+04   1.0327152e+04   1.0333517e+04   1.0339346e+04   1.0344564e+04   1.0349105e+04   1.0352913e+04   1.0355947e+04   1.0358176e+04   1.0359583e+04   1.0360165e+04   1.0359931e+04   1.0358903e+04   1.0357112e+04   1.0354600e+04   1.0351417e+04   1.0347619e+04   1.0343265e+04   1.0338417e+04   1.0333138e+04   1.0327491e+04   1.0321534e+04   1.0315324e+04   1.0308912e+04   1.0302343e+04   1.0295658e+04   1.0288891e+04   1.0282071e+04   1.0275218e+04   1.0268351e+04   1.0261483e+04   1.0254620e+04   1.0247769e+04   1.0240932e+04   1.0234109e+04   1.0227298e+04   1.0220500e+04   1.0213711e+04   1.0206931e+04   1.0200160e+04   1.0193399e+04   1.0186648e+04   1.0179913e+04   1.0173198e+04   1.0166508e+04   1.0159853e+04
1.0038897e+04   1.0044070e+04   1.0049643e+04   1.0055600e+04   1.0061913e+04   1.0068550e+04   1.0075465e+04   1.0082608e+04   1.0089918e+04   1.0097329e+04   1.0104768e+04   1.0112160e+04   1.0119428e+04   1.0126492e+04   1.0133279e+04   1.0139718e+04   1.0145744e+04   1.0151304e+04   1.0156354e+04   1.0160864e+04   1.0164814e+04   1.0168202e+04   1.0171039e+04   1.0173350e+04   1.0175173e+04   1.0176558e+04   1.0177563e+04   1.0178257e+04   1.0178710e+04   1.0178996e+04   1.0179190e+04   1.0179361e+04   1.0179574e+04   1.0179885e+04   1.0180342e+04   1.0180981e+04   1.0181826e+04   1.0182889e+04   1.0184171e+04   1.0185660e+04   1.0187337e+04   1.0189173e+04   1.0191132e+04   1.0193175e+04   1.0195260e+04   1.0197347e+04   1.0199396e+04   1.0201370e+04   1.0203241e+04   1.0204984e+04   1.0206584e+04   1.0208033e+04   1.0209332e+04   1.0210492e+04   1.0211530e+04   1.0212470e+04   1.0213346e+04   1.0214195e+04   1.0215059e+04   1.0215985e+04   1.0217022e+04   1.0218219e+04   1.0219627e+04   1.0221295e+04   1.0223269e+04   1.0225594e+04   1.0228307e+04   1.0231442e+04   1.0235027e+04   1.0239079e+04   1.0243609e+04   1.0248619e+04   1.0254098e+04   1.0260027e+04   1.0266374e+04   1.0273097e+04   1.0280143e+04   1.0287448e+04   1.0294938e+04   1.0302533e+04   1.0310142e+04   1.0317673e+04   1.0325027e+04   1.0332107e+04   1.0338815e+04   1.0345057e+04   1.0350747e+04   1.0355804e+04   1.0360158e+04   1.0363752e+04   1.0366540e+04   1.0368491e+04   1.0369586e+04   1.0369823e+04   1.0369211e+04   1.0367775e+04   1.0365548e+04   1.0362576e+04   1.0358912e+04   1.0354616e+04   1.0349752e+04   1.0344388e+04   1.0338592e+04   1.0332430e+04   1.0325965e+04   1.0319259e+04   1.0312366e+04   1.0305335e+04   1.0298209e+04   1.0291024e+04   1.0283811e+04   1.0276593e+04   1.0269388e+04   1.0262208e+04   1.0255062e+04   1.0247955e+04   1.0240887e+04   1.0233858e+04   1.0226866e+04   1.0219909e+04   1.0212982e+04   1.0206084e+04   1.0199213e+04   1.0192368e+04   1.0185549e+04   1.0178759e+04   1.0172002e+04   1.0165282e+04   1.0158605e+04
1.0039837e+04   1.0045113e+04   1.0050797e+04   1.0056869e+04   1.0063304e+04   1.0070067e+04   1.0077114e+04   1.0084392e+04   1.0091841e+04   1.0099393e+04   1.0106977e+04   1.0114517e+04   1.0121933e+04   1.0129149e+04   1.0136089e+04   1.0142684e+04   1.0148870e+04   1.0154594e+04   1.0159813e+04   1.0164497e+04   1.0168630e+04   1.0172211e+04   1.0175252e+04   1.0177781e+04   1.0179836e+04   1.0181470e+04   1.0182745e+04   1.0183727e+04   1.0184491e+04   1.0185110e+04   1.0185661e+04   1.0186212e+04   1.0186827e+04   1.0187563e+04   1.0188466e+04   1.0189568e+04   1.0190893e+04   1.0192449e+04   1.0194232e+04   1.0196230e+04   1.0198416e+04   1.0200759e+04   1.0203218e+04   1.0205750e+04   1.0208310e+04   1.0210852e+04   1.0213331e+04   1.0215710e+04   1.0217954e+04   1.0220038e+04   1.0221943e+04   1.0223659e+04   1.0225187e+04   1.0226533e+04   1.0227716e+04   1.0228759e+04   1.0229696e+04   1.0230564e+04   1.0231408e+04   1.0232274e+04   1.0233213e+04   1.0234278e+04   1.0235521e+04   1.0236995e+04   1.0238749e+04   1.0240832e+04   1.0243285e+04   1.0246147e+04   1.0249448e+04   1.0253211e+04   1.0257452e+04   1.0262174e+04   1.0267372e+04   1.0273029e+04   1.0279116e+04   1.0285593e+04   1.0292406e+04   1.0299493e+04   1.0306780e+04   1.0314183e+04   1.0321612e+04   1.0328970e+04   1.0336155e+04   1.0343067e+04   1.0349604e+04   1.0355668e+04   1.0361168e+04   1.0366020e+04   1.0370151e+04   1.0373500e+04   1.0376019e+04   1.0377674e+04   1.0378448e+04   1.0378336e+04   1.0377351e+04   1.0375515e+04   1.0372867e+04   1.0369455e+04   1.0365334e+04   1.0360568e+04   1.0355227e+04   1.0349381e+04   1.0343102e+04   1.0336461e+04   1.0329526e+04   1.0322361e+04   1.0315023e+04   1.0307566e+04   1.0300034e+04   1.0292465e+04   1.0284892e+04   1.0277339e+04   1.0269824e+04   1.0262361e+04   1.0254957e+04   1.0247616e+04   1.0240340e+04   1.0233126e+04   1.0225972e+04   1.0218873e+04   1.0211825e+04   1.0204825e+04   1.0197868e+04   1.0190953e+04   1.0184080e+04   1.0177248e+04   1.0170461e+04   1.0163722e+04   1.0157037e+04
1.0040778e+04   1.0046155e+04   1.0051944e+04   1.0058126e+04   1.0064676e+04   1.0071558e+04   1.0078728e+04   1.0086131e+04   1.0093708e+04   1.0101392e+04   1.0109108e+04   1.0116781e+04   1.0124333e+04   1.0131685e+04   1.0138764e+04   1.0145499e+04   1.0151828e+04   1.0157698e+04   1.0163067e+04   1.0167908e+04   1.0172206e+04   1.0175960e+04   1.0179185e+04   1.0181909e+04   1.0184176e+04   1.0186037e+04   1.0187557e+04   1.0188804e+04   1.0189853e+04   1.0190781e+04   1.0191662e+04   1.0192566e+04   1.0193558e+04   1.0194693e+04   1.0196014e+04   1.0197556e+04   1.0199336e+04   1.0201363e+04   1.0203630e+04   1.0206119e+04   1.0208802e+04   1.0211643e+04   1.0214599e+04   1.0217621e+04   1.0220660e+04   1.0223666e+04   1.0226593e+04   1.0229397e+04   1.0232041e+04   1.0234496e+04   1.0236741e+04   1.0238764e+04   1.0240560e+04   1.0242138e+04   1.0243511e+04   1.0244704e+04   1.0245747e+04   1.0246679e+04   1.0247544e+04   1.0248388e+04   1.0249264e+04   1.0250225e+04   1.0251327e+04   1.0252623e+04   1.0254167e+04   1.0256010e+04   1.0258197e+04   1.0260771e+04   1.0263766e+04   1.0267211e+04   1.0271124e+04   1.0275514e+04   1.0280380e+04   1.0285707e+04   1.0291470e+04   1.0297631e+04   1.0304141e+04   1.0310936e+04   1.0317943e+04   1.0325078e+04   1.0332250e+04   1.0339361e+04   1.0346307e+04   1.0352984e+04   1.0359287e+04   1.0365116e+04   1.0370375e+04   1.0374979e+04   1.0378851e+04   1.0381926e+04   1.0384156e+04   1.0385505e+04   1.0385953e+04   1.0385498e+04   1.0384150e+04   1.0381935e+04   1.0378891e+04   1.0375069e+04   1.0370527e+04   1.0365332e+04   1.0359557e+04   1.0353275e+04   1.0346562e+04   1.0339492e+04   1.0332136e+04   1.0324561e+04   1.0316828e+04   1.0308992e+04   1.0301100e+04   1.0293192e+04   1.0285301e+04   1.0277452e+04   1.0269665e+04   1.0261952e+04   1.0254321e+04   1.0246777e+04   1.0239319e+04   1.0231946e+04   1.0224651e+04   1.0217432e+04   1.0210282e+04   1.0203196e+04   1.0196170e+04   1.0189200e+04   1.0182285e+04   1.0175425e+04   1.0168620e+04   1.0161874e+04   1.0155191e+04
1.0041729e+04   1.0047202e+04   1.0053092e+04   1.0059379e+04   1.0066038e+04   1.0073031e+04   1.0080315e+04   1.0087834e+04   1.0095529e+04   1.0103331e+04   1.0111167e+04   1.0118960e+04   1.0126632e+04   1.0134105e+04   1.0141305e+04   1.0148162e+04   1.0154615e+04   1.0160612e+04   1.0166112e+04   1.0171088e+04   1.0175527e+04   1.0179430e+04   1.0182814e+04   1.0185709e+04   1.0188159e+04   1.0190219e+04   1.0191954e+04   1.0193435e+04   1.0194737e+04   1.0195939e+04   1.0197115e+04   1.0198338e+04   1.0199669e+04   1.0201166e+04   1.0202871e+04   1.0204816e+04   1.0207019e+04   1.0209484e+04   1.0212204e+04   1.0215157e+04   1.0218314e+04   1.0221635e+04   1.0225072e+04   1.0228574e+04   1.0232089e+04   1.0235563e+04   1.0238944e+04   1.0242187e+04   1.0245251e+04   1.0248103e+04   1.0250718e+04   1.0253081e+04   1.0255186e+04   1.0257035e+04   1.0258643e+04   1.0260030e+04   1.0261226e+04   1.0262266e+04   1.0263194e+04   1.0264057e+04   1.0264906e+04   1.0265796e+04   1.0266783e+04   1.0267921e+04   1.0269268e+04   1.0270877e+04   1.0272796e+04   1.0275072e+04   1.0277745e+04   1.0280845e+04   1.0284396e+04   1.0288412e+04   1.0292896e+04   1.0297838e+04   1.0303216e+04   1.0308997e+04   1.0315131e+04   1.0321561e+04   1.0328213e+04   1.0335004e+04   1.0341845e+04   1.0348634e+04   1.0355269e+04   1.0361643e+04   1.0367651e+04   1.0373188e+04   1.0378159e+04   1.0382472e+04   1.0386051e+04   1.0388829e+04   1.0390754e+04   1.0391789e+04   1.0391915e+04   1.0391127e+04   1.0389436e+04   1.0386869e+04   1.0383464e+04   1.0379273e+04   1.0374357e+04   1.0368785e+04   1.0362631e+04   1.0355971e+04   1.0348884e+04   1.0341446e+04   1.0333732e+04   1.0325809e+04   1.0317741e+04   1.0309584e+04   1.0301388e+04   1.0293193e+04   1.0285034e+04   1.0276937e+04   1.0268921e+04   1.0261000e+04   1.0253181e+04   1.0245467e+04   1.0237859e+04   1.0230353e+04   1.0222945e+04   1.0215628e+04   1.0208396e+04   1.0201243e+04   1.0194165e+04   1.0187156e+04   1.0180214e+04   1.0173337e+04   1.0166527e+04   1.0159784e+04   1.0153114e+04
1.0042697e+04   1.0048263e+04   1.0054250e+04   1.0060637e+04   1.0067398e+04   1.0074496e+04   1.0081885e+04   1.0089511e+04   1.0097313e+04   1.0105221e+04   1.0113164e+04   1.0121062e+04   1.0128839e+04   1.0136416e+04   1.0143719e+04   1.0150680e+04   1.0157237e+04   1.0163339e+04   1.0168946e+04   1.0174033e+04   1.0178588e+04   1.0182614e+04   1.0186128e+04   1.0189163e+04   1.0191765e+04   1.0193990e+04   1.0195904e+04   1.0197581e+04   1.0199098e+04   1.0200533e+04   1.0201963e+04   1.0203459e+04   1.0205087e+04   1.0206901e+04   1.0208944e+04   1.0211248e+04   1.0213830e+04   1.0216692e+04   1.0219825e+04   1.0223208e+04   1.0226806e+04   1.0230577e+04   1.0234472e+04   1.0238437e+04   1.0242414e+04   1.0246348e+04   1.0250184e+04   1.0253872e+04   1.0257368e+04   1.0260634e+04   1.0263643e+04   1.0266374e+04   1.0268820e+04   1.0270978e+04   1.0272860e+04   1.0274482e+04   1.0275872e+04   1.0277064e+04   1.0278097e+04   1.0279017e+04   1.0279876e+04   1.0280727e+04   1.0281626e+04   1.0282630e+04   1.0283796e+04   1.0285179e+04   1.0286833e+04   1.0288807e+04   1.0291142e+04   1.0293877e+04   1.0297038e+04   1.0300644e+04   1.0304702e+04   1.0309208e+04   1.0314145e+04   1.0319483e+04   1.0325177e+04   1.0331171e+04   1.0337396e+04   1.0343772e+04   1.0350207e+04   1.0356604e+04   1.0362859e+04   1.0368866e+04   1.0374518e+04   1.0379711e+04   1.0384345e+04   1.0388330e+04   1.0391586e+04   1.0394045e+04   1.0395654e+04   1.0396375e+04   1.0396187e+04   1.0395084e+04   1.0393077e+04   1.0390192e+04   1.0386469e+04   1.0381959e+04   1.0376726e+04   1.0370837e+04   1.0364369e+04   1.0357400e+04   1.0350009e+04   1.0342275e+04   1.0334272e+04   1.0326072e+04   1.0317738e+04   1.0309328e+04   1.0300892e+04   1.0292472e+04   1.0284103e+04   1.0275811e+04   1.0267616e+04   1.0259532e+04   1.0251566e+04   1.0243722e+04   1.0235998e+04   1.0228392e+04   1.0220897e+04   1.0213508e+04   1.0206217e+04   1.0199017e+04   1.0191904e+04   1.0184871e+04   1.0177916e+04   1.0171036e+04   1.0164231e+04   1.0157503e+04   1.0150854e+04
1.0043691e+04   1.0049348e+04   1.0055427e+04   1.0061910e+04   1.0068768e+04   1.0075963e+04   1.0083450e+04   1.0091173e+04   1.0099072e+04   1.0107075e+04   1.0115110e+04   1.0123100e+04   1.0130966e+04   1.0138629e+04   1.0146018e+04   1.0153061e+04   1.0159701e+04   1.0165885e+04   1.0171575e+04   1.0176747e+04   1.0181390e+04   1.0185509e+04   1.0189122e+04   1.0192264e+04   1.0194982e+04   1.0197335e+04   1.0199390e+04   1.0201222e+04   1.0202909e+04   1.0204532e+04   1.0206168e+04   1.0207891e+04   1.0209764e+04   1.0211844e+04   1.0214175e+04   1.0216787e+04   1.0219697e+04   1.0222907e+04   1.0226408e+04   1.0230174e+04   1.0234173e+04   1.0238358e+04   1.0242679e+04   1.0247079e+04   1.0251498e+04   1.0255878e+04   1.0260159e+04   1.0264289e+04   1.0268219e+04   1.0271909e+04   1.0275326e+04   1.0278447e+04   1.0281258e+04   1.0283755e+04   1.0285943e+04   1.0287836e+04   1.0289456e+04   1.0290836e+04   1.0292011e+04   1.0293026e+04   1.0293928e+04   1.0294771e+04   1.0295610e+04   1.0296502e+04   1.0297505e+04   1.0298676e+04   1.0300070e+04   1.0301739e+04   1.0303731e+04   1.0306084e+04   1.0308832e+04   1.0311998e+04   1.0315594e+04   1.0319622e+04   1.0324068e+04   1.0328908e+04   1.0334102e+04   1.0339599e+04   1.0345331e+04   1.0351223e+04   1.0357186e+04   1.0363124e+04   1.0368936e+04   1.0374516e+04   1.0379757e+04   1.0384555e+04   1.0388810e+04   1.0392433e+04   1.0395340e+04   1.0397465e+04   1.0398751e+04   1.0399161e+04   1.0398671e+04   1.0397276e+04   1.0394986e+04   1.0391825e+04   1.0387833e+04   1.0383062e+04   1.0377574e+04   1.0371437e+04   1.0364728e+04   1.0357525e+04   1.0349908e+04   1.0341956e+04   1.0333744e+04   1.0325344e+04   1.0316819e+04   1.0308229e+04   1.0299624e+04   1.0291046e+04   1.0282530e+04   1.0274102e+04   1.0265783e+04   1.0257586e+04   1.0249519e+04   1.0241585e+04   1.0233783e+04   1.0226109e+04   1.0218558e+04   1.0211122e+04   1.0203795e+04   1.0196570e+04   1.0189439e+04   1.0182398e+04   1.0175444e+04   1.0168572e+04   1.0161783e+04   1.0155078e+04   1.0148460e+04
1.0044720e+04   1.0050466e+04   1.0056636e+04   1.0063210e+04   1.0070160e+04   1.0077447e+04   1.0085024e+04   1.0092836e+04   1.0100820e+04   1.0108907e+04   1.0117023e+04   1.0125089e+04   1.0133027e+04   1.0140760e+04   1.0148214e+04   1.0155321e+04   1.0162021e+04   1.0168263e+04   1.0174012e+04   1.0179242e+04   1.0183944e+04   1.0188125e+04   1.0191805e+04   1.0195019e+04   1.0197817e+04   1.0200258e+04   1.0202412e+04   1.0204355e+04   1.0206168e+04   1.0207931e+04   1.0209723e+04   1.0211619e+04   1.0213685e+04   1.0215978e+04   1.0218541e+04   1.0221405e+04   1.0224589e+04   1.0228094e+04   1.0231909e+04   1.0236011e+04   1.0240363e+04   1.0244920e+04   1.0249628e+04   1.0254429e+04   1.0259262e+04   1.0264063e+04   1.0268772e+04   1.0273332e+04   1.0277691e+04   1.0281804e+04   1.0285636e+04   1.0289156e+04   1.0292348e+04   1.0295203e+04   1.0297720e+04   1.0299909e+04   1.0301789e+04   1.0303387e+04   1.0304735e+04   1.0305874e+04   1.0306850e+04   1.0307713e+04   1.0308517e+04   1.0309319e+04   1.0310177e+04   1.0311149e+04   1.0312292e+04   1.0313661e+04   1.0315304e+04   1.0317268e+04   1.0319587e+04   1.0322291e+04   1.0325397e+04   1.0328911e+04   1.0332827e+04   1.0337124e+04   1.0341768e+04   1.0346713e+04   1.0351896e+04   1.0357245e+04   1.0362677e+04   1.0368099e+04   1.0373410e+04   1.0378509e+04   1.0383289e+04   1.0387649e+04   1.0391490e+04   1.0394720e+04   1.0397258e+04   1.0399036e+04   1.0399997e+04   1.0400104e+04   1.0399331e+04   1.0397671e+04   1.0395134e+04   1.0391743e+04   1.0387537e+04   1.0382566e+04   1.0376890e+04   1.0370578e+04   1.0363705e+04   1.0356348e+04   1.0348588e+04   1.0340501e+04   1.0332163e+04   1.0323645e+04   1.0315010e+04   1.0306318e+04   1.0297617e+04   1.0288951e+04   1.0280353e+04   1.0271851e+04   1.0263465e+04   1.0255208e+04   1.0247087e+04   1.0239106e+04   1.0231264e+04   1.0223557e+04   1.0215980e+04   1.0208525e+04   1.0201185e+04   1.0193954e+04   1.0186824e+04   1.0179790e+04   1.0172849e+04   1.0165997e+04   1.0159234e+04   1.0152561e+04   1.0145979e+04
1.0045795e+04   1.0051629e+04   1.0057888e+04   1.0064551e+04   1.0071588e+04   1.0078961e+04   1.0086622e+04   1.0094514e+04   1.0102575e+04   1.0110735e+04   1.0118918e+04   1.0127047e+04   1.0135042e+04   1.0142828e+04   1.0150329e+04   1.0157478e+04   1.0164216e+04   1.0170494e+04   1.0176275e+04   1.0181536e+04   1.0186269e+04   1.0190482e+04   1.0194195e+04   1.0197447e+04   1.0200288e+04   1.0202778e+04   1.0204990e+04   1.0207000e+04   1.0208892e+04   1.0210746e+04   1.0212645e+04   1.0214663e+04   1.0216868e+04   1.0219318e+04   1.0222057e+04   1.0225119e+04   1.0228520e+04   1.0232265e+04   1.0236341e+04   1.0240725e+04   1.0245381e+04   1.0250262e+04   1.0255314e+04   1.0260477e+04   1.0265687e+04   1.0270880e+04   1.0275991e+04   1.0280961e+04   1.0285734e+04   1.0290261e+04   1.0294501e+04   1.0298421e+04   1.0301998e+04   1.0305219e+04   1.0308077e+04   1.0310579e+04   1.0312736e+04   1.0314572e+04   1.0316114e+04   1.0317400e+04   1.0318472e+04   1.0319377e+04   1.0320168e+04   1.0320901e+04   1.0321631e+04   1.0322419e+04   1.0323322e+04   1.0324397e+04   1.0325695e+04   1.0327266e+04   1.0329149e+04   1.0331378e+04   1.0333975e+04   1.0336952e+04   1.0340307e+04   1.0344027e+04   1.0348082e+04   1.0352432e+04   1.0357021e+04   1.0361780e+04   1.0366632e+04   1.0371488e+04   1.0376251e+04   1.0380824e+04   1.0385103e+04   1.0388988e+04   1.0392382e+04   1.0395196e+04   1.0397350e+04   1.0398773e+04   1.0399413e+04   1.0399227e+04   1.0398191e+04   1.0396297e+04   1.0393553e+04   1.0389980e+04   1.0385615e+04   1.0380506e+04   1.0374712e+04   1.0368300e+04   1.0361342e+04   1.0353914e+04   1.0346093e+04   1.0337957e+04   1.0329577e+04   1.0321024e+04   1.0312360e+04   1.0303644e+04   1.0294923e+04   1.0286239e+04   1.0277627e+04   1.0269113e+04   1.0260717e+04   1.0252452e+04   1.0244326e+04   1.0236341e+04   1.0228498e+04   1.0220792e+04   1.0213218e+04   1.0205770e+04   1.0198441e+04   1.0191223e+04   1.0184111e+04   1.0177099e+04   1.0170183e+04   1.0163361e+04   1.0156633e+04   1.0149998e+04   1.0143459e+04
1.0046927e+04   1.0052849e+04   1.0059195e+04   1.0065945e+04   1.0073067e+04   1.0080521e+04   1.0088260e+04   1.0096226e+04   1.0104355e+04   1.0112577e+04   1.0120816e+04   1.0128994e+04   1.0137032e+04   1.0144853e+04   1.0152384e+04   1.0159556e+04   1.0166311e+04   1.0172602e+04   1.0178391e+04   1.0183657e+04   1.0188393e+04   1.0192608e+04   1.0196324e+04   1.0199580e+04   1.0202428e+04   1.0204930e+04   1.0207160e+04   1.0209197e+04   1.0211123e+04   1.0213024e+04   1.0214981e+04   1.0217071e+04   1.0219364e+04   1.0221919e+04   1.0224781e+04   1.0227985e+04   1.0231550e+04   1.0235479e+04   1.0239763e+04   1.0244377e+04   1.0249286e+04   1.0254443e+04   1.0259793e+04   1.0265275e+04   1.0270823e+04   1.0276370e+04   1.0281852e+04   1.0287203e+04   1.0292366e+04   1.0297286e+04   1.0301919e+04   1.0306228e+04   1.0310183e+04   1.0313766e+04   1.0316966e+04   1.0319782e+04   1.0322223e+04   1.0324306e+04   1.0326054e+04   1.0327500e+04   1.0328682e+04   1.0329645e+04   1.0330439e+04   1.0331117e+04   1.0331736e+04   1.0332354e+04   1.0333029e+04   1.0333820e+04   1.0334781e+04   1.0335963e+04   1.0337411e+04   1.0339161e+04   1.0341241e+04   1.0343667e+04   1.0346445e+04   1.0349565e+04   1.0353006e+04   1.0356732e+04   1.0360693e+04   1.0364827e+04   1.0369062e+04   1.0373314e+04   1.0377493e+04   1.0381504e+04   1.0385249e+04   1.0388630e+04   1.0391555e+04   1.0393936e+04   1.0395693e+04   1.0396760e+04   1.0397082e+04   1.0396617e+04   1.0395342e+04   1.0393245e+04   1.0390333e+04   1.0386626e+04   1.0382158e+04   1.0376974e+04   1.0371130e+04   1.0364691e+04   1.0357725e+04   1.0350305e+04   1.0342506e+04   1.0334402e+04   1.0326063e+04   1.0317556e+04   1.0308943e+04   1.0300279e+04   1.0291611e+04   1.0282980e+04   1.0274419e+04   1.0265954e+04   1.0257604e+04   1.0249382e+04   1.0241296e+04   1.0233349e+04   1.0225542e+04   1.0217870e+04   1.0210330e+04   1.0202914e+04   1.0195616e+04   1.0188431e+04   1.0181352e+04   1.0174375e+04   1.0167496e+04   1.0160713e+04   1.0154025e+04   1.0147434e+04   1.0140943e+04
1.0048128e+04   1.0054138e+04   1.0060572e+04   1.0067407e+04   1.0074611e+04   1.0082144e+04   1.0089956e+04   1.0097990e+04   1.0106179e+04   1.0114454e+04   1.0122738e+04   1.0130953e+04   1.0139020e+04   1.0146862e+04   1.0154405e+04   1.0161582e+04   1.0168335e+04   1.0174617e+04   1.0180391e+04   1.0185638e+04   1.0190352e+04   1.0194541e+04   1.0198231e+04   1.0201461e+04   1.0204284e+04   1.0206765e+04   1.0208977e+04   1.0211002e+04   1.0212924e+04   1.0214830e+04   1.0216802e+04   1.0218921e+04   1.0221255e+04   1.0223867e+04   1.0226804e+04   1.0230102e+04   1.0233780e+04   1.0237844e+04   1.0242285e+04   1.0247080e+04   1.0252193e+04   1.0257578e+04   1.0263180e+04   1.0268935e+04   1.0274779e+04   1.0280642e+04   1.0286456e+04   1.0292154e+04   1.0297674e+04   1.0302959e+04   1.0307959e+04   1.0312633e+04   1.0316947e+04   1.0320875e+04   1.0324403e+04   1.0327525e+04   1.0330243e+04   1.0332569e+04   1.0334522e+04   1.0336130e+04   1.0337428e+04   1.0338457e+04   1.0339263e+04   1.0339898e+04   1.0340417e+04   1.0340877e+04   1.0341338e+04   1.0341859e+04   1.0342494e+04   1.0343298e+04   1.0344319e+04   1.0345596e+04   1.0347161e+04   1.0349037e+04   1.0351233e+04   1.0353745e+04   1.0356559e+04   1.0359644e+04   1.0362958e+04   1.0366446e+04   1.0370040e+04   1.0373663e+04   1.0377232e+04   1.0380657e+04   1.0383844e+04   1.0386702e+04   1.0389141e+04   1.0391077e+04   1.0392433e+04   1.0393143e+04   1.0393155e+04   1.0392427e+04   1.0390934e+04   1.0388665e+04   1.0385623e+04   1.0381828e+04   1.0377308e+04   1.0372108e+04   1.0366279e+04   1.0359880e+04   1.0352978e+04   1.0345642e+04   1.0337942e+04   1.0329947e+04   1.0321727e+04   1.0313343e+04   1.0304855e+04   1.0296315e+04   1.0287769e+04   1.0279255e+04   1.0270806e+04   1.0262447e+04   1.0254195e+04   1.0246065e+04   1.0238064e+04   1.0230194e+04   1.0222458e+04   1.0214851e+04   1.0207370e+04   1.0200009e+04   1.0192764e+04   1.0185628e+04   1.0178596e+04   1.0171665e+04   1.0164832e+04   1.0158095e+04   1.0151455e+04   1.0144913e+04   1.0138471e+04
1.0049408e+04   1.0055509e+04   1.0062032e+04   1.0068952e+04   1.0076238e+04   1.0083847e+04   1.0091728e+04   1.0099824e+04   1.0108068e+04   1.0116388e+04   1.0124708e+04   1.0132949e+04   1.0141033e+04   1.0148882e+04   1.0156422e+04   1.0163587e+04   1.0170320e+04   1.0176573e+04   1.0182313e+04   1.0187519e+04   1.0192187e+04   1.0196327e+04   1.0199965e+04   1.0203142e+04   1.0205913e+04   1.0208343e+04   1.0210507e+04   1.0212489e+04   1.0214374e+04   1.0216250e+04   1.0218203e+04   1.0220312e+04   1.0222650e+04   1.0225280e+04   1.0228251e+04   1.0231600e+04   1.0235349e+04   1.0239505e+04   1.0244059e+04   1.0248991e+04   1.0254264e+04   1.0259832e+04   1.0265641e+04   1.0271627e+04   1.0277723e+04   1.0283859e+04   1.0289963e+04   1.0295968e+04   1.0301807e+04   1.0307420e+04   1.0312752e+04   1.0317758e+04   1.0322398e+04   1.0326644e+04   1.0330475e+04   1.0333879e+04   1.0336854e+04   1.0339407e+04   1.0341553e+04   1.0343314e+04   1.0344722e+04   1.0345815e+04   1.0346635e+04   1.0347233e+04   1.0347661e+04   1.0347976e+04   1.0348237e+04   1.0348501e+04   1.0348828e+04   1.0349271e+04   1.0349880e+04   1.0350699e+04   1.0351763e+04   1.0353099e+04   1.0354720e+04   1.0356630e+04   1.0358819e+04   1.0361262e+04   1.0363924e+04   1.0366757e+04   1.0369699e+04   1.0372682e+04   1.0375627e+04   1.0378451e+04   1.0381068e+04   1.0383391e+04   1.0385334e+04   1.0386818e+04   1.0387771e+04   1.0388128e+04   1.0387838e+04   1.0386862e+04   1.0385173e+04   1.0382759e+04   1.0379623e+04   1.0375779e+04   1.0371256e+04   1.0366091e+04   1.0360333e+04   1.0354037e+04   1.0347264e+04   1.0340078e+04   1.0332545e+04   1.0324731e+04   1.0316697e+04   1.0308505e+04   1.0300209e+04   1.0291858e+04   1.0283496e+04   1.0275159e+04   1.0266877e+04   1.0258675e+04   1.0250570e+04   1.0242574e+04   1.0234696e+04   1.0226940e+04   1.0219305e+04   1.0211791e+04   1.0204394e+04   1.0197109e+04   1.0189933e+04   1.0182861e+04   1.0175889e+04   1.0169014e+04   1.0162234e+04   1.0155550e+04   1.0148961e+04   1.0142470e+04   1.0136080e+04
1.0050778e+04   1.0056973e+04   1.0063587e+04   1.0070595e+04   1.0077962e+04   1.0085646e+04   1.0093595e+04   1.0101749e+04   1.0110042e+04   1.0118401e+04   1.0126749e+04   1.0135007e+04   1.0143096e+04   1.0150939e+04   1.0158464e+04   1.0165602e+04   1.0172299e+04   1.0178508e+04   1.0184195e+04   1.0189342e+04   1.0193944e+04   1.0198015e+04   1.0201581e+04   1.0204684e+04   1.0207380e+04   1.0209736e+04   1.0211829e+04   1.0213743e+04   1.0215566e+04   1.0217387e+04   1.0219292e+04   1.0221364e+04   1.0223677e+04   1.0226295e+04   1.0229269e+04   1.0232638e+04   1.0236424e+04   1.0240637e+04   1.0245270e+04   1.0250300e+04   1.0255695e+04   1.0261409e+04   1.0267385e+04   1.0273560e+04   1.0279867e+04   1.0286233e+04   1.0292586e+04   1.0298853e+04   1.0304967e+04   1.0310863e+04   1.0316484e+04   1.0321780e+04   1.0326706e+04   1.0331229e+04   1.0335325e+04   1.0338976e+04   1.0342177e+04   1.0344928e+04   1.0347242e+04   1.0349137e+04   1.0350641e+04   1.0351787e+04   1.0352617e+04   1.0353177e+04   1.0353519e+04   1.0353698e+04   1.0353771e+04   1.0353797e+04   1.0353834e+04   1.0353937e+04   1.0354158e+04   1.0354543e+04   1.0355130e+04   1.0355947e+04   1.0357015e+04   1.0358340e+04   1.0359918e+04   1.0361732e+04   1.0363751e+04   1.0365934e+04   1.0368227e+04   1.0370568e+04   1.0372887e+04   1.0375108e+04   1.0377150e+04   1.0378933e+04   1.0380377e+04   1.0381409e+04   1.0381960e+04   1.0381969e+04   1.0381386e+04   1.0380175e+04   1.0378308e+04   1.0375773e+04   1.0372571e+04   1.0368713e+04   1.0364225e+04   1.0359140e+04   1.0353501e+04   1.0347359e+04   1.0340770e+04   1.0333791e+04   1.0326484e+04   1.0318908e+04   1.0311121e+04   1.0303179e+04   1.0295132e+04   1.0287026e+04   1.0278901e+04   1.0270791e+04   1.0262725e+04   1.0254724e+04   1.0246806e+04   1.0238983e+04   1.0231262e+04   1.0223649e+04   1.0216143e+04   1.0208745e+04   1.0201452e+04   1.0194261e+04   1.0187169e+04   1.0180173e+04   1.0173270e+04   1.0166459e+04   1.0159739e+04   1.0153111e+04   1.0146576e+04   1.0140138e+04   1.0133801e+04
1.0052251e+04   1.0058544e+04   1.0065252e+04   1.0072349e+04   1.0079799e+04   1.0087558e+04   1.0095573e+04   1.0103784e+04   1.0112122e+04   1.0120514e+04   1.0128884e+04   1.0137151e+04   1.0145237e+04   1.0153065e+04   1.0160561e+04   1.0167662e+04   1.0174309e+04   1.0180459e+04   1.0186079e+04   1.0191152e+04   1.0195674e+04   1.0199660e+04   1.0203138e+04   1.0206151e+04   1.0208756e+04   1.0211022e+04   1.0213028e+04   1.0214858e+04   1.0216603e+04   1.0218351e+04   1.0220192e+04   1.0222210e+04   1.0224479e+04   1.0227065e+04   1.0230022e+04   1.0233389e+04   1.0237191e+04   1.0241437e+04   1.0246122e+04   1.0251225e+04   1.0256712e+04   1.0262538e+04   1.0268648e+04   1.0274977e+04   1.0281456e+04   1.0288011e+04   1.0294568e+04   1.0301053e+04   1.0307395e+04   1.0313527e+04   1.0319387e+04   1.0324922e+04   1.0330084e+04   1.0334835e+04   1.0339148e+04   1.0343001e+04   1.0346384e+04   1.0349295e+04   1.0351743e+04   1.0353742e+04   1.0355316e+04   1.0356498e+04   1.0357325e+04   1.0357842e+04   1.0358099e+04   1.0358148e+04   1.0358047e+04   1.0357853e+04   1.0357623e+04   1.0357413e+04   1.0357275e+04   1.0357256e+04   1.0357397e+04   1.0357729e+04   1.0358274e+04   1.0359044e+04   1.0360039e+04   1.0361247e+04   1.0362644e+04   1.0364195e+04   1.0365854e+04   1.0367565e+04   1.0369266e+04   1.0370888e+04   1.0372359e+04   1.0373605e+04   1.0374553e+04   1.0375135e+04   1.0375287e+04   1.0374952e+04   1.0374085e+04   1.0372649e+04   1.0370619e+04   1.0367982e+04   1.0364735e+04   1.0360890e+04   1.0356466e+04   1.0351494e+04   1.0346012e+04   1.0340064e+04   1.0333701e+04   1.0326974e+04   1.0319938e+04   1.0312647e+04   1.0305155e+04   1.0297509e+04   1.0289758e+04   1.0281941e+04   1.0274097e+04   1.0266255e+04   1.0258443e+04   1.0250680e+04   1.0242982e+04   1.0235362e+04   1.0227826e+04   1.0220380e+04   1.0213025e+04   1.0205762e+04   1.0198590e+04   1.0191507e+04   1.0184510e+04   1.0177600e+04   1.0170774e+04   1.0164033e+04   1.0157376e+04   1.0150807e+04   1.0144328e+04   1.0137943e+04   1.0131658e+04
1.0053835e+04   1.0060231e+04   1.0067038e+04   1.0074228e+04   1.0081764e+04   1.0089599e+04   1.0097681e+04   1.0105946e+04   1.0114327e+04   1.0122750e+04   1.0131136e+04   1.0139407e+04   1.0147482e+04   1.0155286e+04   1.0162745e+04   1.0169797e+04   1.0176385e+04   1.0182465e+04   1.0188007e+04   1.0192994e+04   1.0197425e+04   1.0201315e+04   1.0204694e+04   1.0207607e+04   1.0210112e+04   1.0212280e+04   1.0214190e+04   1.0215928e+04   1.0217587e+04   1.0219256e+04   1.0221027e+04   1.0222982e+04   1.0225201e+04   1.0227749e+04   1.0230680e+04   1.0234036e+04   1.0237842e+04   1.0242109e+04   1.0246831e+04   1.0251988e+04   1.0257548e+04   1.0263464e+04   1.0269681e+04   1.0276133e+04   1.0282749e+04   1.0289456e+04   1.0296177e+04   1.0302835e+04   1.0309356e+04   1.0315672e+04   1.0321718e+04   1.0327436e+04   1.0332778e+04   1.0337701e+04   1.0342174e+04   1.0346175e+04   1.0349689e+04   1.0352712e+04   1.0355249e+04   1.0357314e+04   1.0358928e+04   1.0360120e+04   1.0360926e+04   1.0361390e+04   1.0361558e+04   1.0361483e+04   1.0361220e+04   1.0360823e+04   1.0360351e+04   1.0359858e+04   1.0359395e+04   1.0359010e+04   1.0358745e+04   1.0358631e+04   1.0358695e+04   1.0358949e+04   1.0359399e+04   1.0360037e+04   1.0360844e+04   1.0361791e+04   1.0362840e+04   1.0363942e+04   1.0365042e+04   1.0366079e+04   1.0366989e+04   1.0367706e+04   1.0368164e+04   1.0368301e+04   1.0368059e+04   1.0367387e+04   1.0366241e+04   1.0364587e+04   1.0362403e+04   1.0359673e+04   1.0356397e+04   1.0352580e+04   1.0348241e+04   1.0343404e+04   1.0338104e+04   1.0332377e+04   1.0326269e+04   1.0319825e+04   1.0313094e+04   1.0306122e+04   1.0298957e+04   1.0291643e+04   1.0284220e+04   1.0276727e+04   1.0269195e+04   1.0261652e+04   1.0254122e+04   1.0246624e+04   1.0239172e+04   1.0231777e+04   1.0224447e+04   1.0217187e+04   1.0210000e+04   1.0202886e+04   1.0195847e+04   1.0188882e+04   1.0181990e+04   1.0175172e+04   1.0168428e+04   1.0161760e+04   1.0155170e+04   1.0148661e+04   1.0142238e+04   1.0135905e+04   1.0129669e+04
1.0055539e+04   1.0062045e+04   1.0068956e+04   1.0076244e+04   1.0083868e+04   1.0091783e+04   1.0099932e+04   1.0108253e+04   1.0116676e+04   1.0125127e+04   1.0133526e+04   1.0141795e+04   1.0149855e+04   1.0157628e+04   1.0165044e+04   1.0172039e+04   1.0178559e+04   1.0184562e+04   1.0190018e+04   1.0194912e+04   1.0199244e+04   1.0203032e+04   1.0206307e+04   1.0209116e+04   1.0211518e+04   1.0213585e+04   1.0215398e+04   1.0217046e+04   1.0218620e+04   1.0220213e+04   1.0221915e+04   1.0223814e+04   1.0225986e+04   1.0228499e+04   1.0231408e+04   1.0234755e+04   1.0238566e+04   1.0242851e+04   1.0247607e+04   1.0252812e+04   1.0258434e+04   1.0264425e+04   1.0270730e+04   1.0277281e+04   1.0284008e+04   1.0290833e+04   1.0297679e+04   1.0304466e+04   1.0311120e+04   1.0317568e+04   1.0323744e+04   1.0329588e+04   1.0335048e+04   1.0340082e+04   1.0344655e+04   1.0348743e+04   1.0352330e+04   1.0355410e+04   1.0357987e+04   1.0360073e+04   1.0361688e+04   1.0362860e+04   1.0363623e+04   1.0364019e+04   1.0364094e+04   1.0363897e+04   1.0363482e+04   1.0362902e+04   1.0362214e+04   1.0361470e+04   1.0360720e+04   1.0360011e+04   1.0359384e+04   1.0358872e+04   1.0358502e+04   1.0358288e+04   1.0358239e+04   1.0358349e+04   1.0358607e+04   1.0358988e+04   1.0359459e+04   1.0359980e+04   1.0360504e+04   1.0360976e+04   1.0361342e+04   1.0361542e+04   1.0361520e+04   1.0361218e+04   1.0360587e+04   1.0359580e+04   1.0358158e+04   1.0356290e+04   1.0353954e+04   1.0351137e+04   1.0347836e+04   1.0344055e+04   1.0339808e+04   1.0335118e+04   1.0330011e+04   1.0324520e+04   1.0318683e+04   1.0312540e+04   1.0306131e+04   1.0299499e+04   1.0292682e+04   1.0285720e+04   1.0278648e+04   1.0271498e+04   1.0264298e+04   1.0257074e+04   1.0249846e+04   1.0242630e+04   1.0235441e+04   1.0228287e+04   1.0221177e+04   1.0214116e+04   1.0207107e+04   1.0200153e+04   1.0193255e+04   1.0186414e+04   1.0179632e+04   1.0172910e+04   1.0166251e+04   1.0159658e+04   1.0153135e+04   1.0146686e+04   1.0140318e+04   1.0134035e+04   1.0127847e+04
1.0057372e+04   1.0063994e+04   1.0071016e+04   1.0078406e+04   1.0086124e+04   1.0094122e+04   1.0102341e+04   1.0110719e+04   1.0119185e+04   1.0127662e+04   1.0136073e+04   1.0144337e+04   1.0152377e+04   1.0160115e+04   1.0167482e+04   1.0174416e+04   1.0180863e+04   1.0186783e+04   1.0192147e+04   1.0196944e+04   1.0201175e+04   1.0204859e+04   1.0208029e+04   1.0210734e+04   1.0213036e+04   1.0215007e+04   1.0216730e+04   1.0218295e+04   1.0219794e+04   1.0221322e+04   1.0222970e+04   1.0224824e+04   1.0226963e+04   1.0229455e+04   1.0232356e+04   1.0235707e+04   1.0239534e+04   1.0243848e+04   1.0248643e+04   1.0253899e+04   1.0259582e+04   1.0265643e+04   1.0272024e+04   1.0278659e+04   1.0285474e+04   1.0292389e+04   1.0299326e+04   1.0306203e+04   1.0312943e+04   1.0319473e+04   1.0325723e+04   1.0331634e+04   1.0337152e+04   1.0342232e+04   1.0346841e+04   1.0350952e+04   1.0354551e+04   1.0357630e+04   1.0360193e+04   1.0362252e+04   1.0363826e+04   1.0364944e+04   1.0365638e+04   1.0365950e+04   1.0365923e+04   1.0365605e+04   1.0365049e+04   1.0364305e+04   1.0363427e+04   1.0362466e+04   1.0361469e+04   1.0360481e+04   1.0359542e+04   1.0358683e+04   1.0357931e+04   1.0357302e+04   1.0356805e+04   1.0356439e+04   1.0356194e+04   1.0356051e+04   1.0355984e+04   1.0355959e+04   1.0355935e+04   1.0355868e+04   1.0355708e+04   1.0355407e+04   1.0354915e+04   1.0354183e+04   1.0353166e+04   1.0351826e+04   1.0350127e+04   1.0348043e+04   1.0345553e+04   1.0342645e+04   1.0339315e+04   1.0335567e+04   1.0331412e+04   1.0326866e+04   1.0321953e+04   1.0316700e+04   1.0311138e+04   1.0305299e+04   1.0299219e+04   1.0292931e+04   1.0286471e+04   1.0279869e+04   1.0273156e+04   1.0266358e+04   1.0259501e+04   1.0252605e+04   1.0245688e+04   1.0238764e+04   1.0231845e+04   1.0224940e+04   1.0218057e+04   1.0211202e+04   1.0204377e+04   1.0197587e+04   1.0190834e+04   1.0184121e+04   1.0177452e+04   1.0170828e+04   1.0164255e+04   1.0157738e+04   1.0151280e+04   1.0144890e+04   1.0138574e+04   1.0132340e+04   1.0126196e+04
1.0059338e+04   1.0066084e+04   1.0073223e+04   1.0080723e+04   1.0088540e+04   1.0096625e+04   1.0104918e+04   1.0113356e+04   1.0121865e+04   1.0130369e+04   1.0138791e+04   1.0147049e+04   1.0155066e+04   1.0162767e+04   1.0170082e+04   1.0176951e+04   1.0183321e+04   1.0189155e+04   1.0194426e+04   1.0199125e+04   1.0203254e+04   1.0206836e+04   1.0209905e+04   1.0212512e+04   1.0214721e+04   1.0216606e+04   1.0218251e+04   1.0219747e+04   1.0221189e+04   1.0222670e+04   1.0224283e+04   1.0226115e+04   1.0228244e+04   1.0230739e+04   1.0233654e+04   1.0237031e+04   1.0240895e+04   1.0245255e+04   1.0250105e+04   1.0255423e+04   1.0261174e+04   1.0267306e+04   1.0273762e+04   1.0280471e+04   1.0287357e+04   1.0294340e+04   1.0301338e+04   1.0308269e+04   1.0315054e+04   1.0321617e+04   1.0327890e+04   1.0333810e+04   1.0339324e+04   1.0344388e+04   1.0348968e+04   1.0353039e+04   1.0356587e+04   1.0359605e+04   1.0362099e+04   1.0364081e+04   1.0365572e+04   1.0366600e+04   1.0367198e+04   1.0367406e+04   1.0367268e+04   1.0366831e+04   1.0366143e+04   1.0365254e+04   1.0364213e+04   1.0363068e+04   1.0361865e+04   1.0360644e+04   1.0359443e+04   1.0358291e+04   1.0357212e+04   1.0356224e+04   1.0355334e+04   1.0354544e+04   1.0353847e+04   1.0353228e+04   1.0352665e+04   1.0352132e+04   1.0351593e+04   1.0351013e+04   1.0350351e+04   1.0349565e+04   1.0348615e+04   1.0347459e+04   1.0346061e+04   1.0344387e+04   1.0342407e+04   1.0340100e+04   1.0337447e+04   1.0334438e+04   1.0331070e+04   1.0327343e+04   1.0323267e+04   1.0318855e+04   1.0314125e+04   1.0309099e+04   1.0303802e+04   1.0298260e+04   1.0292501e+04   1.0286554e+04   1.0280444e+04   1.0274199e+04   1.0267842e+04   1.0261396e+04   1.0254880e+04   1.0248311e+04   1.0241705e+04   1.0235073e+04   1.0228426e+04   1.0221772e+04   1.0215118e+04   1.0208468e+04   1.0201829e+04   1.0195204e+04   1.0188597e+04   1.0182013e+04   1.0175455e+04   1.0168930e+04   1.0162442e+04   1.0155998e+04   1.0149606e+04   1.0143272e+04   1.0137007e+04   1.0130817e+04   1.0124714e+04
1.0061442e+04   1.0068319e+04   1.0075584e+04   1.0083199e+04   1.0091121e+04   1.0099299e+04   1.0107671e+04   1.0116171e+04   1.0124725e+04   1.0133259e+04   1.0141691e+04   1.0149943e+04   1.0157937e+04   1.0165598e+04   1.0172860e+04   1.0179661e+04   1.0185954e+04   1.0191701e+04   1.0196879e+04   1.0201480e+04   1.0205511e+04   1.0208995e+04   1.0211969e+04   1.0214488e+04   1.0216615e+04   1.0218428e+04   1.0220013e+04   1.0221460e+04   1.0222866e+04   1.0224325e+04   1.0225930e+04   1.0227767e+04   1.0229916e+04   1.0232442e+04   1.0235402e+04   1.0238833e+04   1.0242761e+04   1.0247193e+04   1.0252120e+04   1.0257519e+04   1.0263351e+04   1.0269564e+04   1.0276097e+04   1.0282876e+04   1.0289823e+04   1.0296857e+04   1.0303893e+04   1.0310846e+04   1.0317638e+04   1.0324190e+04   1.0330435e+04   1.0336310e+04   1.0341763e+04   1.0346750e+04   1.0351240e+04   1.0355208e+04   1.0358644e+04   1.0361544e+04   1.0363915e+04   1.0365772e+04   1.0367136e+04   1.0368039e+04   1.0368514e+04   1.0368601e+04   1.0368343e+04   1.0367785e+04   1.0366974e+04   1.0365957e+04   1.0364779e+04   1.0363485e+04   1.0362115e+04   1.0360707e+04   1.0359294e+04   1.0357902e+04   1.0356553e+04   1.0355261e+04   1.0354034e+04   1.0352875e+04   1.0351778e+04   1.0350731e+04   1.0349717e+04   1.0348714e+04   1.0347695e+04   1.0346631e+04   1.0345489e+04   1.0344237e+04   1.0342840e+04   1.0341268e+04   1.0339490e+04   1.0337479e+04   1.0335212e+04   1.0332671e+04   1.0329843e+04   1.0326718e+04   1.0323292e+04   1.0319569e+04   1.0315552e+04   1.0311254e+04   1.0306687e+04   1.0301868e+04   1.0296816e+04   1.0291552e+04   1.0286097e+04   1.0280473e+04   1.0274699e+04   1.0268796e+04   1.0262783e+04   1.0256677e+04   1.0250492e+04   1.0244243e+04   1.0237940e+04   1.0231594e+04   1.0225213e+04   1.0218805e+04   1.0212375e+04   1.0205929e+04   1.0199472e+04   1.0193009e+04   1.0186546e+04   1.0180088e+04   1.0173640e+04   1.0167211e+04   1.0160806e+04   1.0154434e+04   1.0148104e+04   1.0141824e+04   1.0135606e+04   1.0129459e+04   1.0123393e+04
1.0063683e+04   1.0070701e+04   1.0078098e+04   1.0085837e+04   1.0093871e+04   1.0102147e+04   1.0110602e+04   1.0119168e+04   1.0127772e+04   1.0136336e+04   1.0144781e+04   1.0153027e+04   1.0160997e+04   1.0168619e+04   1.0175825e+04   1.0182559e+04   1.0188774e+04   1.0194435e+04   1.0199521e+04   1.0204028e+04   1.0207965e+04   1.0211358e+04   1.0214247e+04   1.0216688e+04   1.0218749e+04   1.0220507e+04   1.0222051e+04   1.0223472e+04   1.0224868e+04   1.0226333e+04   1.0227959e+04   1.0229835e+04   1.0232035e+04   1.0234628e+04   1.0237666e+04   1.0241186e+04   1.0245209e+04   1.0249743e+04   1.0254774e+04   1.0260277e+04   1.0266209e+04   1.0272516e+04   1.0279132e+04   1.0285982e+04   1.0292985e+04   1.0300057e+04   1.0307110e+04   1.0314060e+04   1.0320825e+04   1.0327327e+04   1.0333499e+04   1.0339279e+04   1.0344617e+04   1.0349472e+04   1.0353813e+04   1.0357622e+04   1.0360889e+04   1.0363616e+04   1.0365813e+04   1.0367498e+04   1.0368697e+04   1.0369441e+04   1.0369767e+04   1.0369715e+04   1.0369328e+04   1.0368649e+04   1.0367724e+04   1.0366595e+04   1.0365305e+04   1.0363893e+04   1.0362395e+04   1.0360844e+04   1.0359266e+04   1.0357686e+04   1.0356119e+04   1.0354578e+04   1.0353070e+04   1.0351595e+04   1.0350148e+04   1.0348721e+04   1.0347300e+04   1.0345867e+04   1.0344403e+04   1.0342884e+04   1.0341286e+04   1.0339585e+04   1.0337754e+04   1.0335771e+04   1.0333614e+04   1.0331263e+04   1.0328700e+04   1.0325913e+04   1.0322892e+04   1.0319631e+04   1.0316127e+04   1.0312381e+04   1.0308399e+04   1.0304186e+04   1.0299755e+04   1.0295115e+04   1.0290282e+04   1.0285269e+04   1.0280092e+04   1.0274765e+04   1.0269304e+04   1.0263722e+04   1.0258032e+04   1.0252246e+04   1.0246376e+04   1.0240430e+04   1.0234417e+04   1.0228344e+04   1.0222219e+04   1.0216046e+04   1.0209832e+04   1.0203582e+04   1.0197301e+04   1.0190995e+04   1.0184671e+04   1.0178335e+04   1.0171994e+04   1.0165657e+04   1.0159332e+04   1.0153029e+04   1.0146759e+04   1.0140531e+04   1.0134357e+04   1.0128249e+04   1.0122219e+04
1.0066060e+04   1.0073227e+04   1.0080765e+04   1.0088635e+04   1.0096788e+04   1.0105168e+04   1.0113711e+04   1.0122348e+04   1.0131004e+04   1.0139602e+04   1.0148060e+04   1.0156301e+04   1.0164249e+04   1.0171831e+04   1.0178983e+04   1.0185650e+04   1.0191787e+04   1.0197363e+04   1.0202361e+04   1.0206778e+04   1.0210627e+04   1.0213936e+04   1.0216751e+04   1.0219128e+04   1.0221137e+04   1.0222859e+04   1.0224384e+04   1.0225804e+04   1.0227216e+04   1.0228716e+04   1.0230397e+04   1.0232344e+04   1.0234632e+04   1.0237327e+04   1.0240479e+04   1.0244122e+04   1.0248276e+04   1.0252942e+04   1.0258107e+04   1.0263738e+04   1.0269791e+04   1.0276207e+04   1.0282917e+04   1.0289842e+04   1.0296899e+04   1.0303999e+04   1.0311053e+04   1.0317977e+04   1.0324685e+04   1.0331103e+04   1.0337163e+04   1.0342804e+04   1.0347979e+04   1.0352650e+04   1.0356791e+04   1.0360388e+04   1.0363435e+04   1.0365941e+04   1.0367918e+04   1.0369390e+04   1.0370386e+04   1.0370942e+04   1.0371096e+04   1.0370889e+04   1.0370364e+04   1.0369564e+04   1.0368532e+04   1.0367306e+04   1.0365926e+04   1.0364425e+04   1.0362834e+04   1.0361179e+04   1.0359483e+04   1.0357761e+04   1.0356027e+04   1.0354288e+04   1.0352549e+04   1.0350808e+04   1.0349061e+04   1.0347300e+04   1.0345514e+04   1.0343690e+04   1.0341814e+04   1.0339869e+04   1.0337839e+04   1.0335706e+04   1.0333453e+04   1.0331067e+04   1.0328531e+04   1.0325835e+04   1.0322968e+04   1.0319921e+04   1.0316690e+04   1.0313270e+04   1.0309662e+04   1.0305867e+04   1.0301889e+04   1.0297732e+04   1.0293403e+04   1.0288910e+04   1.0284262e+04   1.0279467e+04   1.0274535e+04   1.0269476e+04   1.0264297e+04   1.0259007e+04   1.0253614e+04   1.0248125e+04   1.0242546e+04   1.0236883e+04   1.0231141e+04   1.0225324e+04   1.0219439e+04   1.0213489e+04   1.0207479e+04   1.0201415e+04   1.0195302e+04   1.0189146e+04   1.0182954e+04   1.0176735e+04   1.0170496e+04   1.0164248e+04   1.0157999e+04   1.0151763e+04   1.0145549e+04   1.0139370e+04   1.0133239e+04   1.0127168e+04   1.0121170e+04
1.0068569e+04   1.0075893e+04   1.0083580e+04   1.0091588e+04   1.0099866e+04   1.0108357e+04   1.0116993e+04   1.0125706e+04   1.0134418e+04   1.0143051e+04   1.0151526e+04   1.0159764e+04   1.0167689e+04   1.0175232e+04   1.0182330e+04   1.0188931e+04   1.0194992e+04   1.0200486e+04   1.0205398e+04   1.0209729e+04   1.0213496e+04   1.0216731e+04   1.0219481e+04   1.0221807e+04   1.0223781e+04   1.0225486e+04   1.0227013e+04   1.0228455e+04   1.0229912e+04   1.0231477e+04   1.0233244e+04   1.0235295e+04   1.0237706e+04   1.0240538e+04   1.0243838e+04   1.0247640e+04   1.0251957e+04   1.0256787e+04   1.0262113e+04   1.0267898e+04   1.0274092e+04   1.0280633e+04   1.0287447e+04   1.0294452e+04   1.0301560e+04   1.0308681e+04   1.0315724e+04   1.0322601e+04   1.0329229e+04   1.0335532e+04   1.0341444e+04   1.0346907e+04   1.0351877e+04   1.0356320e+04   1.0360216e+04   1.0363555e+04   1.0366338e+04   1.0368578e+04   1.0370296e+04   1.0371518e+04   1.0372281e+04   1.0372622e+04   1.0372583e+04   1.0372207e+04   1.0371538e+04   1.0370616e+04   1.0369483e+04   1.0368174e+04   1.0366723e+04   1.0365159e+04   1.0363505e+04   1.0361782e+04   1.0360005e+04   1.0358185e+04   1.0356328e+04   1.0354437e+04   1.0352513e+04   1.0350553e+04   1.0348550e+04   1.0346497e+04   1.0344387e+04   1.0342209e+04   1.0339954e+04   1.0337612e+04   1.0335172e+04   1.0332625e+04   1.0329964e+04   1.0327181e+04   1.0324270e+04   1.0321225e+04   1.0318045e+04   1.0314725e+04   1.0311266e+04   1.0307667e+04   1.0303931e+04   1.0300058e+04   1.0296053e+04   1.0291918e+04   1.0287657e+04   1.0283276e+04   1.0278777e+04   1.0274165e+04   1.0269443e+04   1.0264616e+04   1.0259687e+04   1.0254658e+04   1.0249531e+04   1.0244310e+04   1.0238996e+04   1.0233591e+04   1.0228098e+04   1.0222519e+04   1.0216856e+04   1.0211114e+04   1.0205295e+04   1.0199405e+04   1.0193449e+04   1.0187434e+04   1.0181368e+04   1.0175260e+04   1.0169118e+04   1.0162954e+04   1.0156779e+04   1.0150606e+04   1.0144446e+04   1.0138315e+04   1.0132224e+04   1.0126189e+04   1.0120222e+04
1.0071200e+04   1.0078689e+04   1.0086533e+04   1.0094686e+04   1.0103097e+04   1.0111703e+04   1.0120439e+04   1.0129231e+04   1.0138002e+04   1.0146674e+04   1.0155167e+04   1.0163403e+04   1.0171307e+04   1.0178812e+04   1.0185857e+04   1.0192392e+04   1.0198379e+04   1.0203792e+04   1.0208621e+04   1.0212872e+04   1.0216563e+04   1.0219732e+04   1.0222428e+04   1.0224715e+04   1.0226669e+04   1.0228374e+04   1.0229923e+04   1.0231411e+04   1.0232937e+04   1.0234595e+04   1.0236476e+04   1.0238663e+04   1.0241227e+04   1.0244229e+04   1.0247711e+04   1.0251702e+04   1.0256212e+04   1.0261235e+04   1.0266746e+04   1.0272707e+04   1.0279061e+04   1.0285740e+04   1.0292668e+04   1.0299756e+04   1.0306915e+04   1.0314050e+04   1.0321069e+04   1.0327882e+04   1.0334407e+04   1.0340568e+04   1.0346301e+04   1.0351552e+04   1.0356281e+04   1.0360458e+04   1.0364070e+04   1.0367112e+04   1.0369593e+04   1.0371532e+04   1.0372955e+04   1.0373898e+04   1.0374400e+04   1.0374504e+04   1.0374255e+04   1.0373698e+04   1.0372877e+04   1.0371833e+04   1.0370603e+04   1.0369222e+04   1.0367715e+04   1.0366108e+04   1.0364417e+04   1.0362655e+04   1.0360831e+04   1.0358948e+04   1.0357006e+04   1.0355004e+04   1.0352936e+04   1.0350797e+04   1.0348578e+04   1.0346274e+04   1.0343876e+04   1.0341378e+04   1.0338775e+04   1.0336063e+04   1.0333237e+04   1.0330297e+04   1.0327241e+04   1.0324072e+04   1.0320789e+04   1.0317396e+04   1.0313897e+04   1.0310295e+04   1.0306593e+04   1.0302796e+04   1.0298908e+04   1.0294932e+04   1.0290870e+04   1.0286726e+04   1.0282501e+04   1.0278196e+04   1.0273810e+04   1.0269345e+04   1.0264798e+04   1.0260168e+04   1.0255453e+04   1.0250651e+04   1.0245759e+04   1.0240776e+04   1.0235700e+04   1.0230528e+04   1.0225261e+04   1.0219898e+04   1.0214439e+04   1.0208887e+04   1.0203244e+04   1.0197516e+04   1.0191707e+04   1.0185825e+04   1.0179877e+04   1.0173873e+04   1.0167824e+04   1.0161741e+04   1.0155637e+04   1.0149525e+04   1.0143418e+04   1.0137333e+04   1.0131282e+04   1.0125282e+04   1.0119346e+04
1.0073943e+04   1.0081605e+04   1.0089612e+04   1.0097917e+04   1.0106465e+04   1.0115193e+04   1.0124032e+04   1.0132907e+04   1.0141741e+04   1.0150454e+04   1.0158967e+04   1.0167203e+04   1.0175087e+04   1.0182554e+04   1.0189547e+04   1.0196017e+04   1.0201930e+04   1.0207264e+04   1.0212014e+04   1.0216187e+04   1.0219808e+04   1.0222917e+04   1.0225568e+04   1.0227828e+04   1.0229775e+04   1.0231496e+04   1.0233085e+04   1.0234639e+04   1.0236256e+04   1.0238030e+04   1.0240052e+04   1.0242401e+04   1.0245146e+04   1.0248344e+04   1.0252035e+04   1.0256242e+04   1.0260970e+04   1.0266208e+04   1.0271927e+04   1.0278079e+04   1.0284607e+04   1.0291435e+04   1.0298481e+04   1.0305654e+04   1.0312860e+04   1.0320001e+04   1.0326983e+04   1.0333716e+04   1.0340118e+04   1.0346113e+04   1.0351641e+04   1.0356650e+04   1.0361106e+04   1.0364986e+04   1.0368280e+04   1.0370992e+04   1.0373139e+04   1.0374746e+04   1.0375848e+04   1.0376485e+04   1.0376703e+04   1.0376551e+04   1.0376077e+04   1.0375328e+04   1.0374349e+04   1.0373180e+04   1.0371857e+04   1.0370409e+04   1.0368859e+04   1.0367224e+04   1.0365515e+04   1.0363737e+04   1.0361891e+04   1.0359974e+04   1.0357979e+04   1.0355898e+04   1.0353720e+04   1.0351437e+04   1.0349038e+04   1.0346517e+04   1.0343866e+04   1.0341081e+04   1.0338161e+04   1.0335106e+04   1.0331919e+04   1.0328607e+04   1.0325174e+04   1.0321631e+04   1.0317986e+04   1.0314249e+04   1.0310431e+04   1.0306540e+04   1.0302587e+04   1.0298578e+04   1.0294520e+04   1.0290419e+04   1.0286277e+04   1.0282096e+04   1.0277876e+04   1.0273615e+04   1.0269310e+04   1.0264957e+04   1.0260550e+04   1.0256083e+04   1.0251549e+04   1.0246942e+04   1.0242255e+04   1.0237481e+04   1.0232614e+04   1.0227650e+04   1.0222585e+04   1.0217417e+04   1.0212143e+04   1.0206766e+04   1.0201285e+04   1.0195707e+04   1.0190035e+04   1.0184276e+04   1.0178440e+04   1.0172535e+04   1.0166575e+04   1.0160570e+04   1.0154534e+04   1.0148482e+04   1.0142428e+04   1.0136389e+04   1.0130379e+04   1.0124414e+04   1.0118509e+04
1.0076783e+04   1.0084623e+04   1.0092800e+04   1.0101262e+04   1.0109953e+04   1.0118807e+04   1.0127753e+04   1.0136714e+04   1.0145614e+04   1.0154370e+04   1.0162904e+04   1.0171140e+04   1.0179005e+04   1.0186435e+04   1.0193375e+04   1.0199780e+04   1.0205620e+04   1.0210877e+04   1.0215548e+04   1.0219647e+04   1.0223202e+04   1.0226258e+04   1.0228871e+04   1.0231112e+04   1.0233063e+04   1.0234813e+04   1.0236457e+04   1.0238093e+04   1.0239819e+04   1.0241729e+04   1.0243911e+04   1.0246443e+04   1.0249392e+04   1.0252808e+04   1.0256728e+04   1.0261171e+04   1.0266136e+04   1.0271605e+04   1.0277544e+04   1.0283901e+04   1.0290609e+04   1.0297591e+04   1.0304756e+04   1.0312011e+04   1.0319257e+04   1.0326394e+04   1.0333326e+04   1.0339962e+04   1.0346220e+04   1.0352027e+04   1.0357325e+04   1.0362067e+04   1.0366223e+04   1.0369777e+04   1.0372726e+04   1.0375081e+04   1.0376867e+04   1.0378117e+04   1.0378873e+04   1.0379183e+04   1.0379100e+04   1.0378675e+04   1.0377962e+04   1.0377011e+04   1.0375866e+04   1.0374569e+04   1.0373151e+04   1.0371639e+04   1.0370051e+04   1.0368397e+04   1.0366681e+04   1.0364903e+04   1.0363054e+04   1.0361124e+04   1.0359099e+04   1.0356964e+04   1.0354705e+04   1.0352308e+04   1.0349760e+04   1.0347052e+04   1.0344179e+04   1.0341138e+04   1.0337931e+04   1.0334563e+04   1.0331042e+04   1.0327381e+04   1.0323593e+04   1.0319695e+04   1.0315701e+04   1.0311631e+04   1.0307499e+04   1.0303323e+04   1.0299115e+04   1.0294887e+04   1.0290649e+04   1.0286407e+04   1.0282166e+04   1.0277927e+04   1.0273688e+04   1.0269445e+04   1.0265192e+04   1.0260922e+04   1.0256625e+04   1.0252291e+04   1.0247908e+04   1.0243467e+04   1.0238955e+04   1.0234362e+04   1.0229681e+04   1.0224901e+04   1.0220017e+04   1.0215023e+04   1.0209918e+04   1.0204699e+04   1.0199368e+04   1.0193927e+04   1.0188382e+04   1.0182740e+04   1.0177010e+04   1.0171201e+04   1.0165325e+04   1.0159397e+04   1.0153429e+04   1.0147437e+04   1.0141437e+04   1.0135445e+04   1.0129477e+04   1.0123550e+04   1.0117679e+04
1.0079702e+04   1.0087725e+04   1.0096076e+04   1.0104700e+04   1.0113537e+04   1.0122520e+04   1.0131576e+04   1.0140627e+04   1.0149593e+04   1.0158393e+04   1.0166950e+04   1.0175185e+04   1.0183030e+04   1.0190423e+04   1.0197310e+04   1.0203650e+04   1.0209417e+04   1.0214596e+04   1.0219191e+04   1.0223217e+04   1.0226710e+04   1.0229715e+04   1.0232296e+04   1.0234525e+04   1.0236488e+04   1.0238276e+04   1.0239986e+04   1.0241717e+04   1.0243566e+04   1.0245626e+04   1.0247984e+04   1.0250714e+04   1.0253880e+04   1.0257530e+04   1.0261694e+04   1.0266384e+04   1.0271597e+04   1.0277307e+04   1.0283473e+04   1.0290038e+04   1.0296928e+04   1.0304061e+04   1.0311341e+04   1.0318670e+04   1.0325945e+04   1.0333065e+04   1.0339930e+04   1.0346450e+04   1.0352544e+04   1.0358141e+04   1.0363185e+04   1.0367636e+04   1.0371468e+04   1.0374671e+04   1.0377251e+04   1.0379227e+04   1.0380629e+04   1.0381501e+04   1.0381892e+04   1.0381857e+04   1.0381454e+04   1.0380742e+04   1.0379777e+04   1.0378612e+04   1.0377293e+04   1.0375859e+04   1.0374342e+04   1.0372763e+04   1.0371136e+04   1.0369466e+04   1.0367749e+04   1.0365978e+04   1.0364136e+04   1.0362206e+04   1.0360167e+04   1.0357998e+04   1.0355679e+04   1.0353191e+04   1.0350519e+04   1.0347653e+04   1.0344587e+04   1.0341321e+04   1.0337857e+04   1.0334206e+04   1.0330381e+04   1.0326400e+04   1.0322284e+04   1.0318054e+04   1.0313733e+04   1.0309347e+04   1.0304917e+04   1.0300464e+04   1.0296007e+04   1.0291563e+04   1.0287142e+04   1.0282754e+04   1.0278404e+04   1.0274093e+04   1.0269818e+04   1.0265574e+04   1.0261352e+04   1.0257142e+04   1.0252930e+04   1.0248703e+04   1.0244447e+04   1.0240145e+04   1.0235784e+04   1.0231350e+04   1.0226830e+04   1.0222214e+04   1.0217491e+04   1.0212656e+04   1.0207703e+04   1.0202629e+04   1.0197436e+04   1.0192124e+04   1.0186699e+04   1.0181168e+04   1.0175538e+04   1.0169822e+04   1.0164030e+04   1.0158177e+04   1.0152278e+04   1.0146348e+04   1.0140404e+04   1.0134462e+04   1.0128539e+04   1.0122653e+04   1.0116821e+04
1.0082677e+04   1.0090888e+04   1.0099415e+04   1.0108204e+04   1.0117190e+04   1.0126304e+04   1.0135471e+04   1.0144612e+04   1.0153646e+04   1.0162491e+04   1.0171069e+04   1.0179304e+04   1.0187128e+04   1.0194482e+04   1.0201314e+04   1.0207589e+04   1.0213282e+04   1.0218383e+04   1.0222901e+04   1.0226856e+04   1.0230286e+04   1.0233244e+04   1.0235795e+04   1.0238018e+04   1.0239998e+04   1.0241831e+04   1.0243614e+04   1.0245447e+04   1.0247427e+04   1.0249646e+04   1.0252189e+04   1.0255127e+04   1.0258520e+04   1.0262410e+04   1.0266823e+04   1.0271768e+04   1.0277231e+04   1.0283183e+04   1.0289575e+04   1.0296344e+04   1.0303411e+04   1.0310686e+04   1.0318070e+04   1.0325460e+04   1.0332749e+04   1.0339833e+04   1.0346612e+04   1.0352996e+04   1.0358904e+04   1.0364268e+04   1.0369037e+04   1.0373174e+04   1.0376659e+04   1.0379489e+04   1.0381679e+04   1.0383253e+04   1.0384253e+04   1.0384728e+04   1.0384735e+04   1.0384338e+04   1.0383600e+04   1.0382585e+04   1.0381355e+04   1.0379963e+04   1.0378457e+04   1.0376877e+04   1.0375250e+04   1.0373596e+04   1.0371923e+04   1.0370232e+04   1.0368511e+04   1.0366746e+04   1.0364914e+04   1.0362989e+04   1.0360945e+04   1.0358754e+04   1.0356389e+04   1.0353829e+04   1.0351056e+04   1.0348057e+04   1.0344826e+04   1.0341363e+04   1.0337675e+04   1.0333774e+04   1.0329679e+04   1.0325411e+04   1.0320998e+04   1.0316468e+04   1.0311850e+04   1.0307174e+04   1.0302468e+04   1.0297759e+04   1.0293070e+04   1.0288420e+04   1.0283825e+04   1.0279294e+04   1.0274835e+04   1.0270447e+04   1.0266129e+04   1.0261873e+04   1.0257668e+04   1.0253502e+04   1.0249359e+04   1.0245221e+04   1.0241070e+04   1.0236889e+04   1.0232660e+04   1.0228364e+04   1.0223988e+04   1.0219518e+04   1.0214941e+04   1.0210249e+04   1.0205436e+04   1.0200497e+04   1.0195432e+04   1.0190242e+04   1.0184931e+04   1.0179506e+04   1.0173975e+04   1.0168350e+04   1.0162643e+04   1.0156867e+04   1.0151038e+04   1.0145173e+04   1.0139288e+04   1.0133401e+04   1.0127528e+04   1.0121689e+04   1.0115899e+04
1.0085685e+04   1.0094084e+04   1.0102790e+04   1.0111744e+04   1.0120880e+04   1.0130126e+04   1.0139405e+04   1.0148635e+04   1.0157735e+04   1.0166624e+04   1.0175222e+04   1.0183455e+04   1.0191257e+04   1.0198569e+04   1.0205346e+04   1.0211552e+04   1.0217169e+04   1.0222192e+04   1.0226631e+04   1.0230514e+04   1.0233882e+04   1.0236793e+04   1.0239317e+04   1.0241534e+04   1.0243535e+04   1.0245415e+04   1.0247275e+04   1.0249214e+04   1.0251330e+04   1.0253712e+04   1.0256443e+04   1.0259592e+04   1.0263213e+04   1.0267345e+04   1.0272008e+04   1.0277203e+04   1.0282913e+04   1.0289101e+04   1.0295711e+04   1.0302674e+04   1.0309904e+04   1.0317307e+04   1.0324778e+04   1.0332209e+04   1.0339491e+04   1.0346518e+04   1.0353190e+04   1.0359414e+04   1.0365112e+04   1.0370220e+04   1.0374690e+04   1.0378489e+04   1.0381606e+04   1.0384043e+04   1.0385821e+04   1.0386976e+04   1.0387554e+04   1.0387614e+04   1.0387221e+04   1.0386445e+04   1.0385356e+04   1.0384022e+04   1.0382510e+04   1.0380875e+04   1.0379167e+04   1.0377423e+04   1.0375672e+04   1.0373928e+04   1.0372196e+04   1.0370471e+04   1.0368736e+04   1.0366969e+04   1.0365141e+04   1.0363220e+04   1.0361172e+04   1.0358964e+04   1.0356565e+04   1.0353947e+04   1.0351091e+04   1.0347981e+04   1.0344612e+04   1.0340983e+04   1.0337104e+04   1.0332989e+04   1.0328660e+04   1.0324145e+04   1.0319475e+04   1.0314683e+04   1.0309804e+04   1.0304874e+04   1.0299926e+04   1.0294990e+04   1.0290095e+04   1.0285262e+04   1.0280510e+04   1.0275851e+04   1.0271291e+04   1.0266834e+04   1.0262474e+04   1.0258204e+04   1.0254012e+04   1.0249883e+04   1.0245797e+04   1.0241737e+04   1.0237680e+04   1.0233605e+04   1.0229493e+04   1.0225323e+04   1.0221077e+04   1.0216739e+04   1.0212296e+04   1.0207737e+04   1.0203054e+04   1.0198242e+04   1.0193299e+04   1.0188225e+04   1.0183025e+04   1.0177704e+04   1.0172272e+04   1.0166739e+04   1.0161117e+04   1.0155421e+04   1.0149667e+04   1.0143871e+04   1.0138051e+04   1.0132223e+04   1.0126407e+04   1.0120620e+04   1.0114880e+04
1.0088698e+04   1.0097285e+04   1.0106169e+04   1.0115287e+04   1.0124572e+04   1.0133948e+04   1.0143337e+04   1.0152655e+04   1.0161819e+04   1.0170749e+04   1.0179364e+04   1.0187593e+04   1.0195369e+04   1.0202638e+04   1.0209355e+04   1.0215491e+04   1.0221030e+04   1.0225971e+04   1.0230330e+04   1.0234139e+04   1.0237444e+04   1.0240308e+04   1.0242803e+04   1.0245014e+04   1.0247035e+04   1.0248964e+04   1.0250901e+04   1.0252947e+04   1.0255197e+04   1.0257742e+04   1.0260660e+04   1.0264017e+04   1.0267863e+04   1.0272231e+04   1.0277137e+04   1.0282575e+04   1.0288521e+04   1.0294932e+04   1.0301745e+04   1.0308885e+04   1.0316260e+04   1.0323769e+04   1.0331304e+04   1.0338753e+04   1.0346004e+04   1.0352949e+04   1.0359486e+04   1.0365524e+04   1.0370988e+04   1.0375815e+04   1.0379961e+04   1.0383401e+04   1.0386126e+04   1.0388149e+04   1.0389497e+04   1.0390212e+04   1.0390350e+04   1.0389978e+04   1.0389167e+04   1.0387994e+04   1.0386536e+04   1.0384866e+04   1.0383052e+04   1.0381154e+04   1.0379223e+04   1.0377296e+04   1.0375398e+04   1.0373544e+04   1.0371732e+04   1.0369954e+04   1.0368187e+04   1.0366403e+04   1.0364567e+04   1.0362641e+04   1.0360585e+04   1.0358360e+04   1.0355930e+04   1.0353266e+04   1.0350342e+04   1.0347143e+04   1.0343662e+04   1.0339898e+04   1.0335863e+04   1.0331573e+04   1.0327053e+04   1.0322335e+04   1.0317452e+04   1.0312445e+04   1.0307351e+04   1.0302211e+04   1.0297062e+04   1.0291940e+04   1.0286874e+04   1.0281891e+04   1.0277011e+04   1.0272247e+04   1.0267608e+04   1.0263096e+04   1.0258706e+04   1.0254430e+04   1.0250255e+04   1.0246163e+04   1.0242134e+04   1.0238146e+04   1.0234177e+04   1.0230202e+04   1.0226198e+04   1.0222144e+04   1.0218019e+04   1.0213806e+04   1.0209489e+04   1.0205056e+04   1.0200497e+04   1.0195806e+04   1.0190981e+04   1.0186022e+04   1.0180931e+04   1.0175715e+04   1.0170382e+04   1.0164943e+04   1.0159410e+04   1.0153799e+04   1.0148125e+04   1.0142404e+04   1.0136655e+04   1.0130895e+04   1.0125142e+04   1.0119416e+04   1.0113733e+04
1.0091685e+04   1.0100458e+04   1.0109516e+04   1.0118797e+04   1.0128227e+04   1.0137730e+04   1.0147224e+04   1.0156626e+04   1.0165852e+04   1.0174818e+04   1.0183447e+04   1.0191667e+04   1.0199414e+04   1.0206635e+04   1.0213290e+04   1.0219352e+04   1.0224809e+04   1.0229665e+04   1.0233941e+04   1.0237673e+04   1.0240913e+04   1.0243727e+04   1.0246192e+04   1.0248396e+04   1.0250435e+04   1.0252409e+04   1.0254421e+04   1.0256570e+04   1.0258953e+04   1.0261656e+04   1.0264755e+04   1.0268313e+04   1.0272375e+04   1.0276970e+04   1.0282106e+04   1.0287772e+04   1.0293938e+04   1.0300553e+04   1.0307549e+04   1.0314843e+04   1.0322338e+04   1.0329929e+04   1.0337502e+04   1.0344941e+04   1.0352132e+04   1.0358966e+04   1.0365340e+04   1.0371165e+04   1.0376367e+04   1.0380887e+04   1.0384685e+04   1.0387741e+04   1.0390053e+04   1.0391640e+04   1.0392537e+04   1.0392794e+04   1.0392474e+04   1.0391650e+04   1.0390403e+04   1.0388814e+04   1.0386967e+04   1.0384938e+04   1.0382801e+04   1.0380617e+04   1.0378438e+04   1.0376300e+04   1.0374230e+04   1.0372238e+04   1.0370320e+04   1.0368462e+04   1.0366639e+04   1.0364817e+04   1.0362954e+04   1.0361008e+04   1.0358934e+04   1.0356687e+04   1.0354228e+04   1.0351524e+04   1.0348546e+04   1.0345278e+04   1.0341711e+04   1.0337845e+04   1.0333691e+04   1.0329268e+04   1.0324603e+04   1.0319730e+04   1.0314688e+04   1.0309517e+04   1.0304261e+04   1.0298964e+04   1.0293666e+04   1.0288405e+04   1.0283215e+04   1.0278123e+04   1.0273153e+04   1.0268318e+04   1.0263629e+04   1.0259086e+04   1.0254687e+04   1.0250421e+04   1.0246274e+04   1.0242228e+04   1.0238261e+04   1.0234349e+04   1.0230467e+04   1.0226590e+04   1.0222693e+04   1.0218752e+04   1.0214744e+04   1.0210651e+04   1.0206456e+04   1.0202145e+04   1.0197707e+04   1.0193136e+04   1.0188428e+04   1.0183583e+04   1.0178602e+04   1.0173493e+04   1.0168262e+04   1.0162922e+04   1.0157484e+04   1.0151963e+04   1.0146375e+04   1.0140737e+04   1.0135067e+04   1.0129383e+04   1.0123703e+04   1.0118046e+04   1.0112430e+04
1.0094614e+04   1.0103568e+04   1.0112796e+04   1.0122232e+04   1.0131803e+04   1.0141427e+04   1.0151022e+04   1.0160502e+04   1.0169783e+04   1.0178781e+04   1.0187418e+04   1.0195624e+04   1.0203337e+04   1.0210506e+04   1.0217093e+04   1.0223076e+04   1.0228447e+04   1.0233215e+04   1.0237405e+04   1.0241057e+04   1.0244229e+04   1.0246989e+04   1.0249420e+04   1.0251613e+04   1.0253667e+04   1.0255683e+04   1.0257765e+04   1.0260012e+04   1.0262519e+04   1.0265372e+04   1.0268643e+04   1.0272391e+04   1.0276657e+04   1.0281463e+04   1.0286813e+04   1.0292689e+04   1.0299054e+04   1.0305851e+04   1.0313005e+04   1.0320427e+04   1.0328015e+04   1.0335658e+04   1.0343238e+04   1.0350637e+04   1.0357738e+04   1.0364429e+04   1.0370611e+04   1.0376194e+04   1.0381106e+04   1.0385291e+04   1.0388716e+04   1.0391364e+04   1.0393241e+04   1.0394372e+04   1.0394797e+04   1.0394576e+04   1.0393778e+04   1.0392484e+04   1.0390780e+04   1.0388754e+04   1.0386495e+04   1.0384085e+04   1.0381598e+04   1.0379101e+04   1.0376644e+04   1.0374267e+04   1.0371992e+04   1.0369829e+04   1.0367773e+04   1.0365805e+04   1.0363896e+04   1.0362007e+04   1.0360094e+04   1.0358109e+04   1.0356002e+04   1.0353725e+04   1.0351235e+04   1.0348496e+04   1.0345476e+04   1.0342158e+04   1.0338530e+04   1.0334595e+04   1.0330361e+04   1.0325850e+04   1.0321090e+04   1.0316117e+04   1.0310970e+04   1.0305694e+04   1.0300336e+04   1.0294940e+04   1.0289550e+04   1.0284206e+04   1.0278945e+04   1.0273795e+04   1.0268780e+04   1.0263917e+04   1.0259214e+04   1.0254674e+04   1.0250293e+04   1.0246061e+04   1.0241962e+04   1.0237978e+04   1.0234084e+04   1.0230257e+04   1.0226469e+04   1.0222694e+04   1.0218906e+04   1.0215078e+04   1.0211188e+04   1.0207215e+04   1.0203141e+04   1.0198952e+04   1.0194636e+04   1.0190185e+04   1.0185595e+04   1.0180866e+04   1.0175999e+04   1.0171000e+04   1.0165877e+04   1.0160640e+04   1.0155303e+04   1.0149880e+04   1.0144387e+04   1.0138840e+04   1.0133258e+04   1.0127659e+04   1.0122062e+04   1.0116484e+04   1.0110945e+04
1.0097452e+04   1.0106578e+04   1.0115969e+04   1.0125553e+04   1.0135255e+04   1.0144993e+04   1.0154681e+04   1.0164232e+04   1.0173560e+04   1.0182583e+04   1.0191222e+04   1.0199407e+04   1.0207079e+04   1.0214190e+04   1.0220705e+04   1.0226604e+04   1.0231885e+04   1.0236560e+04   1.0240659e+04   1.0244227e+04   1.0247326e+04   1.0250029e+04   1.0252422e+04   1.0254600e+04   1.0256663e+04   1.0258715e+04   1.0260859e+04   1.0263197e+04   1.0265820e+04   1.0268812e+04   1.0272243e+04   1.0276167e+04   1.0280620e+04   1.0285621e+04   1.0291165e+04   1.0297228e+04   1.0303768e+04   1.0310720e+04   1.0318004e+04   1.0325526e+04   1.0333176e+04   1.0340840e+04   1.0348396e+04   1.0355722e+04   1.0362701e+04   1.0369220e+04   1.0375178e+04   1.0380489e+04   1.0385083e+04   1.0388908e+04   1.0391935e+04   1.0394152e+04   1.0395572e+04   1.0396224e+04   1.0396159e+04   1.0395440e+04   1.0394144e+04   1.0392360e+04   1.0390178e+04   1.0387694e+04   1.0384999e+04   1.0382180e+04   1.0379317e+04   1.0376476e+04   1.0373710e+04   1.0371058e+04   1.0368544e+04   1.0366175e+04   1.0363944e+04   1.0361830e+04   1.0359801e+04   1.0357815e+04   1.0355824e+04   1.0353777e+04   1.0351619e+04   1.0349301e+04   1.0346776e+04   1.0344004e+04   1.0340954e+04   1.0337603e+04   1.0333942e+04   1.0329970e+04   1.0325697e+04   1.0321144e+04   1.0316341e+04   1.0311322e+04   1.0306131e+04   1.0300813e+04   1.0295415e+04   1.0289984e+04   1.0284566e+04   1.0279201e+04   1.0273927e+04   1.0268775e+04   1.0263768e+04   1.0258923e+04   1.0254250e+04   1.0249751e+04   1.0245423e+04   1.0241254e+04   1.0237228e+04   1.0233326e+04   1.0229524e+04   1.0225795e+04   1.0222113e+04   1.0218448e+04   1.0214775e+04   1.0211066e+04   1.0207297e+04   1.0203447e+04   1.0199498e+04   1.0195433e+04   1.0191240e+04   1.0186913e+04   1.0182445e+04   1.0177835e+04   1.0173087e+04   1.0168204e+04   1.0163194e+04   1.0158069e+04   1.0152841e+04   1.0147524e+04   1.0142134e+04   1.0136688e+04   1.0131204e+04   1.0125701e+04   1.0120196e+04   1.0114709e+04   1.0109258e+04
1.0100164e+04   1.0109452e+04   1.0118994e+04   1.0128716e+04   1.0138540e+04   1.0148381e+04   1.0158151e+04   1.0167764e+04   1.0177130e+04   1.0186168e+04   1.0194800e+04   1.0202957e+04   1.0210582e+04   1.0217628e+04   1.0224064e+04   1.0229874e+04   1.0235058e+04   1.0239635e+04   1.0243639e+04   1.0247119e+04   1.0250140e+04   1.0252781e+04   1.0255131e+04   1.0257287e+04   1.0259353e+04   1.0261434e+04   1.0263633e+04   1.0266051e+04   1.0268779e+04   1.0271897e+04   1.0275473e+04   1.0279557e+04   1.0284180e+04   1.0289353e+04   1.0295068e+04   1.0301295e+04   1.0307983e+04   1.0315063e+04   1.0322449e+04   1.0330038e+04   1.0337720e+04   1.0345372e+04   1.0352871e+04   1.0360093e+04   1.0366918e+04   1.0373233e+04   1.0378939e+04   1.0383950e+04   1.0388199e+04   1.0391639e+04   1.0394244e+04   1.0396009e+04   1.0396951e+04   1.0397106e+04   1.0396531e+04   1.0395296e+04   1.0393485e+04   1.0391190e+04   1.0388510e+04   1.0385545e+04   1.0382390e+04   1.0379138e+04   1.0375868e+04   1.0372651e+04   1.0369542e+04   1.0366581e+04   1.0363790e+04   1.0361176e+04   1.0358732e+04   1.0356435e+04   1.0354250e+04   1.0352134e+04   1.0350036e+04   1.0347901e+04   1.0345674e+04   1.0343302e+04   1.0340735e+04   1.0337933e+04   1.0334860e+04   1.0331495e+04   1.0327826e+04   1.0323850e+04   1.0319579e+04   1.0315032e+04   1.0310237e+04   1.0305232e+04   1.0300057e+04   1.0294761e+04   1.0289389e+04   1.0283989e+04   1.0278608e+04   1.0273286e+04   1.0268062e+04   1.0262966e+04   1.0258022e+04   1.0253248e+04   1.0248652e+04   1.0244237e+04   1.0239999e+04   1.0235927e+04   1.0232004e+04   1.0228209e+04   1.0224519e+04   1.0220907e+04   1.0217344e+04   1.0213802e+04   1.0210254e+04   1.0206671e+04   1.0203031e+04   1.0199310e+04   1.0195489e+04   1.0191553e+04   1.0187489e+04   1.0183289e+04   1.0178948e+04   1.0174465e+04   1.0169840e+04   1.0165080e+04   1.0160192e+04   1.0155186e+04   1.0150075e+04   1.0144874e+04   1.0139597e+04   1.0134262e+04   1.0128888e+04   1.0123491e+04   1.0118091e+04   1.0112705e+04   1.0107353e+04
1.0102713e+04   1.0112151e+04   1.0121831e+04   1.0131678e+04   1.0141611e+04   1.0151542e+04   1.0161383e+04   1.0171044e+04   1.0180438e+04   1.0189480e+04   1.0198096e+04   1.0206215e+04   1.0213783e+04   1.0220757e+04   1.0227106e+04   1.0232821e+04   1.0237904e+04   1.0242377e+04   1.0246280e+04   1.0249666e+04   1.0252605e+04   1.0255178e+04   1.0257479e+04   1.0259607e+04   1.0261669e+04   1.0263769e+04   1.0266013e+04   1.0268500e+04   1.0271320e+04   1.0274550e+04   1.0278254e+04   1.0282479e+04   1.0287250e+04   1.0292574e+04   1.0298437e+04   1.0304800e+04   1.0311609e+04   1.0318788e+04   1.0326244e+04   1.0333870e+04   1.0341550e+04   1.0349160e+04   1.0356571e+04   1.0363657e+04   1.0370298e+04   1.0376380e+04   1.0381806e+04   1.0386491e+04   1.0390372e+04   1.0393405e+04   1.0395568e+04   1.0396862e+04   1.0397308e+04   1.0396950e+04   1.0395849e+04   1.0394083e+04   1.0391739e+04   1.0388918e+04   1.0385722e+04   1.0382254e+04   1.0378618e+04   1.0374905e+04   1.0371202e+04   1.0367580e+04   1.0364095e+04   1.0360788e+04   1.0357683e+04   1.0354787e+04   1.0352092e+04   1.0349573e+04   1.0347197e+04   1.0344917e+04   1.0342681e+04   1.0340434e+04   1.0338118e+04   1.0335678e+04   1.0333063e+04   1.0330231e+04   1.0327146e+04   1.0323783e+04   1.0320130e+04   1.0316184e+04   1.0311953e+04   1.0307457e+04   1.0302723e+04   1.0297787e+04   1.0292691e+04   1.0287479e+04   1.0282199e+04   1.0276897e+04   1.0271618e+04   1.0266405e+04   1.0261293e+04   1.0256313e+04   1.0251489e+04   1.0246838e+04   1.0242368e+04   1.0238081e+04   1.0233974e+04   1.0230033e+04   1.0226243e+04   1.0222583e+04   1.0219029e+04   1.0215552e+04   1.0212126e+04   1.0208721e+04   1.0205309e+04   1.0201864e+04   1.0198360e+04   1.0194775e+04   1.0191090e+04   1.0187290e+04   1.0183361e+04   1.0179295e+04   1.0175087e+04   1.0170736e+04   1.0166243e+04   1.0161613e+04   1.0156854e+04   1.0151977e+04   1.0146993e+04   1.0141916e+04   1.0136763e+04   1.0131550e+04   1.0126296e+04   1.0121017e+04   1.0115732e+04   1.0110461e+04   1.0105219e+04
1.0105065e+04   1.0114636e+04   1.0124439e+04   1.0134395e+04   1.0144421e+04   1.0154428e+04   1.0164324e+04   1.0174021e+04   1.0183428e+04   1.0192463e+04   1.0201050e+04   1.0209122e+04   1.0216624e+04   1.0223515e+04   1.0229771e+04   1.0235382e+04   1.0240357e+04   1.0244721e+04   1.0248516e+04   1.0251803e+04   1.0254653e+04   1.0257153e+04   1.0259398e+04   1.0261491e+04   1.0263539e+04   1.0265650e+04   1.0267927e+04   1.0270470e+04   1.0273366e+04   1.0276692e+04   1.0280506e+04   1.0284851e+04   1.0289748e+04   1.0295199e+04   1.0301181e+04   1.0307654e+04   1.0314555e+04   1.0321802e+04   1.0329297e+04   1.0336930e+04   1.0344578e+04   1.0352113e+04   1.0359406e+04   1.0366327e+04   1.0372756e+04   1.0378580e+04   1.0383702e+04   1.0388040e+04   1.0391532e+04   1.0394140e+04   1.0395846e+04   1.0396654e+04   1.0396592e+04   1.0395709e+04   1.0394072e+04   1.0391762e+04   1.0388875e+04   1.0385514e+04   1.0381787e+04   1.0377802e+04   1.0373664e+04   1.0369470e+04   1.0365309e+04   1.0361254e+04   1.0357363e+04   1.0353679e+04   1.0350226e+04   1.0347012e+04   1.0344030e+04   1.0341255e+04   1.0338653e+04   1.0336177e+04   1.0333776e+04   1.0331392e+04   1.0328968e+04   1.0326447e+04   1.0323778e+04   1.0320917e+04   1.0317827e+04   1.0314483e+04   1.0310869e+04   1.0306983e+04   1.0302831e+04   1.0298429e+04   1.0293806e+04   1.0288994e+04   1.0284033e+04   1.0278967e+04   1.0273841e+04   1.0268700e+04   1.0263588e+04   1.0258544e+04   1.0253605e+04   1.0248800e+04   1.0244151e+04   1.0239674e+04   1.0235378e+04   1.0231263e+04   1.0227325e+04   1.0223552e+04   1.0219927e+04   1.0216429e+04   1.0213033e+04   1.0209713e+04   1.0206441e+04   1.0203188e+04   1.0199926e+04   1.0196629e+04   1.0193271e+04   1.0189831e+04   1.0186290e+04   1.0182631e+04   1.0178844e+04   1.0174919e+04   1.0170852e+04   1.0166640e+04   1.0162286e+04   1.0157795e+04   1.0153174e+04   1.0148434e+04   1.0143586e+04   1.0138645e+04   1.0133626e+04   1.0128546e+04   1.0123422e+04   1.0118273e+04   1.0113116e+04   1.0107970e+04   1.0102852e+04
